   8.5130400e-01  -2.8273200e-01  -3.7786000e-02
   8.5131100e-01  -2.7880800e-01  -4.3130000e-02
   8.5131100e-01  -2.7880800e-01   4.3130000e-02
   8.5142600e-01  -2.8083500e-01  -1.4138400e-01
   8.5144500e-01  -2.8478200e-01  -1.0305800e-01
   8.5146200e-01  -2.7107800e-01   4.8406000e-02
   8.5147500e-01  -2.7498600e-01  -1.6883800e-01
   8.5149100e-01  -2.8283900e-01  -3.2390000e-02
   8.5151100e-01  -2.6528000e-01   1.0725000e-02
   8.5152700e-01  -2.7893000e-01  -3.7743000e-02
   8.5152700e-01  -2.7893000e-01   3.7743000e-02
   8.5157300e-01  -2.7504100e-01  -1.0270900e-01
   8.5157400e-01  -2.6919500e-01   3.7614000e-02
   8.5159600e-01  -2.6920700e-01   9.1627000e-02
   8.5160900e-01  -2.7701700e-01  -1.1372100e-01
   8.5162900e-01  -2.9278300e-01  -1.6997300e-01
   8.5163600e-01  -2.8095500e-01  -4.3180000e-02
   8.5167200e-01  -2.7705300e-01  -2.1547000e-02
   8.5168100e-01  -2.8491800e-01  -8.1248000e-02
   8.5171400e-01  -2.7903600e-01   3.2354000e-02
   8.5172400e-01  -2.6733600e-01   8.6157000e-02
   8.5173600e-01  -2.8297900e-01  -1.4154300e-01
   8.5175700e-01  -2.7124200e-01  -5.9216000e-02
   8.5176200e-01  -2.6929900e-01   3.2243000e-02
   8.5176700e-01  -2.7124800e-01   1.0259300e-01
   8.5180500e-01  -2.7321800e-01  -4.8461000e-02
   8.5183700e-01  -2.8107000e-01  -1.2490500e-01
   8.5184500e-01  -2.7715000e-01  -1.0774000e-02
   8.5187700e-01  -2.6548100e-01   5.3717000e-02
   8.5188800e-01  -2.7717500e-01  -5.3870000e-03
   8.5189900e-01  -2.7718100e-01  -5.9351000e-02
   8.5191500e-01  -2.6163300e-01   9.1419000e-02
   8.5191600e-01  -2.8111500e-01  -8.1156000e-02
   8.5193000e-01  -2.6745000e-01   5.9148000e-02
   8.5194000e-01  -2.8309600e-01  -1.1950800e-01
   8.5194500e-01  -2.7329700e-01  -1.7441100e-01
   8.5195000e-01  -2.6940300e-01   6.4590000e-02
   8.5198100e-01  -2.8115200e-01   1.0845600e-01
   8.5201000e-01  -2.8510700e-01  -1.1410600e-01
   8.5201300e-01  -2.7920600e-01  -8.6549000e-02
   8.5203900e-01  -2.8118500e-01  -3.2390000e-02
   8.5205900e-01  -2.7141100e-01  -5.3840000e-02
   8.5207000e-01  -2.7141700e-01   1.0808900e-01
   8.5208700e-01  -2.6366000e-01   5.9081000e-02
   8.5209900e-01  -2.7338300e-01  -5.9283000e-02
   8.5210500e-01  -2.7338700e-01  -1.0270900e-01
   8.5210800e-01  -2.7534200e-01  -9.7326000e-02
   8.5210800e-01  -2.7534200e-01   9.7326000e-02
   8.5211000e-01  -2.6754900e-01   6.9961000e-02
   8.5212600e-01  -2.5984000e-01  -1.7363000e-01
   8.5212700e-01  -2.8517500e-01  -1.4726700e-01
   8.5215100e-01  -2.6563200e-01   4.8351000e-02
   8.5217200e-01  -2.7929600e-01  -1.1937300e-01
   8.5217200e-01  -2.6758400e-01   8.0788000e-02
   8.5218700e-01  -2.7538700e-01  -1.4122500e-01
   8.5220200e-01  -2.7735200e-01  -5.3962000e-02
   8.5220200e-01  -2.7735200e-01   5.3962000e-02
   8.5223300e-01  -2.6761700e-01   5.3778000e-02
   8.5224900e-01  -2.6762600e-01  -1.0796600e-01
   8.5225000e-01  -2.8130500e-01  -1.1397800e-01
   8.5229200e-01  -2.6959400e-01  -1.0259300e-01
   8.5229200e-01  -2.6959400e-01   1.0259300e-01
   8.5230200e-01  -2.7154700e-01   9.7216000e-02
   8.5233400e-01  -2.8135300e-01  -7.5759000e-02
   8.5240200e-01  -2.7355300e-01  -5.3901000e-02
   8.5243700e-01  -2.7748500e-01  -9.7436000e-02
   8.5244800e-01  -2.6579500e-01  -5.9148000e-02
   8.5244800e-01  -2.6579500e-01   5.9148000e-02
   8.5247000e-01  -2.8732600e-01  -1.6978400e-01
   8.5247500e-01  -2.8340200e-01  -1.3614200e-01
   8.5247600e-01  -2.7750700e-01   4.8572000e-02
   8.5248900e-01  -2.8144100e-01  -1.1950800e-01
   8.5250800e-01  -2.6776900e-01   4.8406000e-02
   8.5251500e-01  -2.9330200e-01  -1.6455300e-01
   8.5254400e-01  -2.8147300e-01  -1.0305800e-01
   8.5258300e-01  -2.7953000e-01  -3.2390000e-02
   8.5258400e-01  -2.7170400e-01  -1.1910400e-01
   8.5259200e-01  -2.6781500e-01   7.5416000e-02
   8.5259500e-01  -2.6976200e-01  -1.0808900e-01
   8.5259900e-01  -2.7757700e-01  -1.4693800e-01
   8.5260300e-01  -2.8544800e-01  -1.0870100e-01
   8.5261400e-01  -2.7562700e-01  -9.1939000e-02
   8.5264100e-01  -2.7368700e-01  -9.7326000e-02
   8.5265800e-01  -2.7761000e-01  -1.5249800e-01
   8.5266500e-01  -2.6397700e-01   4.8351000e-02
   8.5267600e-01  -2.7370600e-01   4.8517000e-02
   8.5267900e-01  -2.8352000e-01  -1.4726700e-01
   8.5270500e-01  -2.5246100e-01   8.0420000e-02
   8.5272100e-01  -2.8354400e-01  -1.6959500e-01
   8.5272100e-01  -2.7764600e-01   4.3180000e-02
   8.5273900e-01  -2.7569700e-01   1.0833300e-01
   8.5274200e-01  -2.7962000e-01  -2.6994000e-02
   8.5274500e-01  -2.6790000e-01  -1.0750000e-02
   8.5274500e-01  -2.6790000e-01   1.0750000e-02
   8.5275100e-01  -2.6596200e-01  -5.3778000e-02
   8.5275300e-01  -2.6790500e-01   4.3032000e-02
   8.5276000e-01  -2.8947400e-01  -1.6997300e-01
   8.5276600e-01  -2.7767100e-01  -1.0294200e-01
   8.5278800e-01  -2.6792400e-01   5.3750000e-03
   8.5279400e-01  -2.7965000e-01  -1.1397800e-01
   8.5280100e-01  -2.6599000e-01   3.2243000e-02
   8.5280300e-01  -2.6793200e-01   0.0000000e+00
   8.5281400e-01  -2.6793800e-01  -1.0259300e-01
   8.5282200e-01  -2.8360100e-01   4.3278000e-02
   8.5282800e-01  -2.7966900e-01  -1.4154300e-01
   8.5284300e-01  -2.7380000e-01  -1.6161000e-02
   8.5289600e-01  -2.8561700e-01  -1.4186000e-01
   8.5291100e-01  -2.6411100e-01   4.2983000e-02
   8.5291500e-01  -2.7384000e-01  -1.0774000e-02
   8.5292100e-01  -2.7384400e-01   4.3130000e-02
   8.5292800e-01  -2.7580300e-01  -1.3583700e-01
   8.5294300e-01  -2.7777100e-01  -9.2044000e-02
   8.5295800e-01  -2.7386500e-01  -5.3870000e-03
   8.5296000e-01  -2.6607700e-01   2.6871000e-02
   8.5299900e-01  -2.6609800e-01   9.7106000e-02
   8.5301300e-01  -2.7585100e-01  -4.8572000e-02
   8.5303800e-01  -2.8372500e-01   3.7872000e-02
   8.5308400e-01  -2.8178100e-01  -6.4958000e-02
   8.5308900e-01  -2.7981700e-01  -1.0305800e-01
   8.5311300e-01  -2.6616100e-01   8.6255000e-02
   8.5314700e-01  -2.7397100e-01  -9.1939000e-02
   8.5317000e-01  -2.8380100e-01   5.4146000e-02
   8.5320800e-01  -2.7205200e-01  -1.1372100e-01
   8.5325800e-01  -2.7598900e-01  -4.3180000e-02
   8.5326900e-01  -2.7991900e-01  -7.0360000e-02
   8.5327200e-01  -2.6624800e-01   4.3032000e-02
   8.5330400e-01  -2.7601500e-01   1.0294200e-01
   8.5330700e-01  -2.6626800e-01   5.3750000e-03
   8.5331700e-01  -2.6821600e-01   2.6902000e-02
   8.5333000e-01  -2.7212000e-01  -1.7460600e-01
   8.5334100e-01  -2.6241000e-01  -1.6106000e-02
   8.5334500e-01  -2.7799900e-01  -4.8627000e-02
   8.5335100e-01  -2.6823500e-01  -9.7216000e-02
   8.5336100e-01  -2.4898000e-01  -1.7324000e-01
   8.5337000e-01  -2.7801300e-01  -1.4154300e-01
   8.5337100e-01  -2.9380400e-01  -1.5912700e-01
   8.5342000e-01  -2.7804100e-01  -8.6647000e-02
   8.5344700e-01  -2.6828800e-01   2.1523000e-02
   8.5345800e-01  -2.7024100e-01  -5.3901000e-02
   8.5348900e-01  -2.6636800e-01   3.7657000e-02
   8.5350700e-01  -2.6637800e-01   9.1731000e-02
   8.5351400e-01  -2.7809400e-01   1.6198000e-02
   8.5351800e-01  -2.5289400e-01   6.9722000e-02
   8.5354800e-01  -2.6834400e-01   1.6143000e-02
   8.5356300e-01  -2.6640800e-01   8.0880000e-02
   8.5356900e-01  -2.8009000e-01  -1.3614200e-01
   8.5357500e-01  -2.7812900e-01  -1.1950800e-01
   8.5361000e-01  -2.8405300e-01  -1.6418700e-01
   8.5361400e-01  -2.7423200e-01  -2.1572000e-02
   8.5362200e-01  -2.5872100e-01   1.0236000e-01
   8.5363000e-01  -2.8012400e-01  -6.4958000e-02
   8.5363200e-01  -2.8998000e-01  -1.5335300e-01
   8.5364000e-01  -2.7620400e-01  -1.3044300e-01
   8.5364700e-01  -2.8998900e-01  -1.6455300e-01
   8.5369700e-01  -2.7037400e-01  -9.7326000e-02
   8.5373200e-01  -2.7039300e-01  -4.8517000e-02
   8.5377800e-01  -2.6264900e-01   5.3778000e-02
   8.5378700e-01  -2.6459100e-01  -4.3032000e-02
   8.5380300e-01  -2.7238400e-01  -1.0833300e-01
   8.5380500e-01  -2.5689200e-01   4.8296000e-02
   8.5384200e-01  -2.7240500e-01  -1.3029700e-01
   8.5385800e-01  -2.6851500e-01  -9.1835000e-02
   8.5386800e-01  -2.7829500e-01  -8.1248000e-02
   8.5388100e-01  -2.5308700e-01   6.4369000e-02
   8.5389100e-01  -2.8619000e-01  -1.5318200e-01
   8.5389300e-01  -2.5694000e-01   7.5244000e-02
   8.5395800e-01  -2.7638300e-01  -8.6647000e-02
   8.5397800e-01  -2.7053000e-01  -4.3130000e-02
   8.5400400e-01  -2.6471000e-01   3.7657000e-02
   8.5405100e-01  -2.5702500e-01   4.2934000e-02
   8.5405300e-01  -2.6279900e-01   4.8406000e-02
   8.5411100e-01  -2.7843200e-01  -1.3614200e-01
   8.5412400e-01  -2.7647700e-01  -1.0799000e-02
   8.5414000e-01  -2.6672600e-01  -1.0762000e-02
   8.5414200e-01  -2.6093400e-01  -3.7614000e-02
   8.5415200e-01  -2.6479100e-01   1.0808900e-01
   8.5416000e-01  -2.5901200e-01   9.6996000e-02
   8.5416700e-01  -2.7650100e-01  -5.4000000e-03
   8.5418300e-01  -2.6675000e-01  -5.3810000e-03
   8.5419200e-01  -2.6870000e-01  -2.6932000e-02
   8.5419300e-01  -2.6481300e-01   3.2280000e-02
   8.5419900e-01  -2.9428900e-01  -1.5369500e-01
   8.5420500e-01  -2.7065600e-01  -9.1939000e-02
   8.5420900e-01  -2.8833100e-01  -1.6455300e-01
   8.5424600e-01  -2.7263000e-01  -1.6180000e-02
   8.5428500e-01  -2.5715100e-01   6.9881000e-02
   8.5429900e-01  -2.6293300e-01   4.3032000e-02
   8.5431800e-01  -2.7267100e-01  -1.0787000e-02
   8.5432200e-01  -2.6877200e-01  -2.1547000e-02
   8.5432300e-01  -2.8643900e-01   1.0894600e-01
   8.5432300e-01  -2.7658900e-01  -1.2504500e-01
   8.5433700e-01  -2.6878000e-01  -8.6451000e-02
   8.5434500e-01  -2.7660100e-01  -3.7829000e-02
   8.5435000e-01  -2.6296000e-01   5.9216000e-02
   8.5435200e-01  -2.6490000e-01   2.6902000e-02
   8.5440700e-01  -2.7663600e-01  -8.1248000e-02
   8.5442300e-01  -2.6882700e-01  -1.6161000e-02
   8.5444400e-01  -2.6883900e-01  -1.6902700e-01
   8.5446900e-01  -2.8454500e-01  -1.5877300e-01
   8.5449200e-01  -2.8653600e-01  -1.3660100e-01
   8.5450100e-01  -2.6498200e-01  -8.6353000e-02
   8.5450600e-01  -2.9048800e-01  -1.5912700e-01
   8.5451700e-01  -2.6305100e-01   3.7657000e-02
   8.5452600e-01  -2.7278700e-01  -1.2490500e-01
   8.5453300e-01  -2.7670700e-01  -3.2427000e-02
   8.5453900e-01  -2.6889100e-01  -5.3870000e-03
   8.5469200e-01  -2.7679600e-01  -2.7025000e-02
   8.5470500e-01  -2.6315400e-01   3.2280000e-02
   8.5471500e-01  -2.7093900e-01  -1.7480100e-01
   8.5471900e-01  -2.6899100e-01   3.7743000e-02
   8.5471900e-01  -2.6510200e-01   1.0270900e-01
   8.5472700e-01  -2.6899600e-01  -7.0200000e-02
   8.5478700e-01  -2.6902900e-01  -8.1064000e-02
   8.5480100e-01  -2.8276100e-01  -2.7086000e-02
   8.5482200e-01  -2.7687000e-01  -2.1621000e-02
   8.5482400e-01  -2.7883500e-01  -1.3073700e-01
   8.5482700e-01  -2.7687200e-01  -7.5845000e-02
   8.5488900e-01  -2.7103600e-01  -5.3930000e-03
   8.5488900e-01  -2.7103600e-01   5.3930000e-03
   8.5490400e-01  -2.7104400e-01   0.0000000e+00
   8.5490700e-01  -2.7299900e-01  -9.7547000e-02
   8.5490700e-01  -2.6909500e-01   3.2354000e-02
   8.5496400e-01  -2.8088200e-01  -1.2532600e-01
   8.5497700e-01  -2.7695700e-01  -1.1964200e-01
   8.5502500e-01  -2.7306500e-01  -8.6647000e-02
   8.5502900e-01  -2.8684500e-01  -1.2560800e-01
   8.5503700e-01  -2.7503000e-01  -1.3059000e-01
   8.5505800e-01  -2.8093500e-01  -8.1431000e-02
   8.5506400e-01  -2.6529000e-01  -1.3015000e-01
   8.5509700e-01  -2.6336700e-01   1.6143000e-02
   8.5518600e-01  -2.7511300e-01  -1.3614200e-01
   8.5520400e-01  -2.8694600e-01  -1.3117700e-01
   8.5521200e-01  -2.6343100e-01  -5.3810000e-03
   8.5521300e-01  -2.7905500e-01  -1.6978400e-01
   8.5522600e-01  -2.5765600e-01   8.0788000e-02
   8.5524700e-01  -2.7514700e-01  -6.4958000e-02
   8.5525800e-01  -2.6539600e-01   9.7326000e-02
   8.5526900e-01  -2.5575100e-01   7.5330000e-02
   8.5528800e-01  -2.5769000e-01   5.3778000e-02
   8.5529300e-01  -2.6541600e-01  -4.8517000e-02
   8.5530400e-01  -2.7517900e-01  -1.4170100e-01
   8.5533800e-01  -2.6933300e-01  -1.6363800e-01
   8.5536100e-01  -2.7521100e-01  -8.6745000e-02
   8.5540800e-01  -2.6353700e-01  -9.1835000e-02
   8.5541500e-01  -2.7328200e-01  -9.2148000e-02
   8.5542300e-01  -2.6938000e-01  -5.9418000e-02
   8.5550800e-01  -2.7922200e-01  -1.2532600e-01
   8.5551300e-01  -2.7529600e-01  -1.1964200e-01
   8.5552400e-01  -2.8120000e-01  -1.6997300e-01
   8.5559200e-01  -2.7142600e-01  -1.4710300e-01
   8.5564900e-01  -2.7145800e-01  -1.5266900e-01
   8.5566200e-01  -2.5596200e-01   6.9961000e-02
   8.5567400e-01  -2.5983000e-01   1.0808900e-01
   8.5568300e-01  -2.8722200e-01  -1.2018100e-01
   8.5571800e-01  -2.6759400e-01   2.1572000e-02
   8.5572000e-01  -2.7149700e-01   1.0799000e-02
   8.5572500e-01  -2.7149900e-01   4.3229000e-02
   8.5572800e-01  -2.6954900e-01  -5.4024000e-02
   8.5575000e-01  -2.6566600e-01  -1.2476400e-01
   8.5575700e-01  -2.6567000e-01  -3.7743000e-02
   8.5581100e-01  -2.7546300e-01  -8.1339000e-02
   8.5581900e-01  -2.6765000e-01   1.6180000e-02
   8.5585000e-01  -2.5413600e-01  -1.7402100e-01
   8.5587500e-01  -2.5993800e-01  -2.6902000e-02
   8.5589300e-01  -2.6574400e-01  -5.3962000e-02
   8.5594200e-01  -2.7162000e-01  -3.7829000e-02
   8.5594300e-01  -2.6771800e-01   1.0294200e-01
   8.5594600e-01  -2.6577300e-01  -3.2354000e-02
   8.5595000e-01  -2.6772200e-01   0.0000000e+00
   8.5599400e-01  -2.6969600e-01  -1.1397800e-01
   8.5600300e-01  -2.6970100e-01  -4.8627000e-02
   8.5605400e-01  -2.4659200e-01  -1.7363000e-01
   8.5608000e-01  -2.6974300e-01  -7.5759000e-02
   8.5608100e-01  -2.6004900e-01  -1.7441100e-01
   8.5608700e-01  -2.6198900e-01  -3.2317000e-02
   8.5610400e-01  -2.6391700e-01  -1.0282600e-01
   8.5610500e-01  -2.6586000e-01  -2.6963000e-02
   8.5610600e-01  -2.7956000e-01  -1.6437000e-01
   8.5611700e-01  -2.6976400e-01  -1.4710300e-01
   8.5612900e-01  -2.6587300e-01  -6.4810000e-02
   8.5612900e-01  -2.6587300e-01   6.4810000e-02
   8.5613000e-01  -2.7172500e-01  -3.2427000e-02
   8.5618700e-01  -2.8355100e-01  -7.0678000e-02
   8.5620300e-01  -2.6591400e-01  -1.4138400e-01
   8.5623200e-01  -2.7569900e-01  -7.5931000e-02
   8.5623600e-01  -2.6593200e-01  -2.1572000e-02
   8.5623600e-01  -2.6593200e-01   2.1572000e-02
   8.5624700e-01  -2.6207600e-01  -2.6932000e-02
   8.5625000e-01  -2.6983700e-01  -4.3229000e-02
   8.5625200e-01  -2.7571000e-01  -1.4743200e-01
   8.5629000e-01  -2.7181300e-01  -2.7025000e-02
   8.5633700e-01  -2.6598800e-01  -1.6180000e-02
   8.5636600e-01  -2.7185600e-01  -1.4170100e-01
   8.5639200e-01  -2.6215400e-01  -7.5587000e-02
   8.5640500e-01  -2.6022400e-01  -3.7700000e-02
   8.5640500e-01  -2.5829000e-01   6.4663000e-02
   8.5640700e-01  -2.6602600e-01  -1.1937300e-01
   8.5640700e-01  -2.6408200e-01  -1.0833300e-01
   8.5641000e-01  -2.6602700e-01  -1.0787000e-02
   8.5641000e-01  -2.6602700e-01   1.0787000e-02
   8.5641600e-01  -2.8170700e-01  -1.6455300e-01
   8.5641600e-01  -2.7973500e-01  -3.7957000e-02
   8.5642000e-01  -2.7188600e-01  -2.1621000e-02
   8.5645400e-01  -2.6605100e-01  -5.3930000e-03
   8.5645400e-01  -2.6605100e-01   5.3930000e-03
   8.5646800e-01  -2.6995800e-01  -3.7829000e-02
   8.5646800e-01  -2.6605900e-01   0.0000000e+00
   8.5652200e-01  -2.7194200e-01  -1.6216000e-02
   8.5652500e-01  -2.6803800e-01  -4.8627000e-02
   8.5658200e-01  -2.7393300e-01  -1.3629500e-01
   8.5658600e-01  -2.7589700e-01  -1.2532600e-01
   8.5659400e-01  -2.7198200e-01  -1.0811000e-02
   8.5662400e-01  -2.7591900e-01  -7.0519000e-02
   8.5664000e-01  -2.6615300e-01   7.0280000e-02
   8.5664700e-01  -2.7789700e-01  -1.6437000e-01
   8.5668300e-01  -2.5844000e-01   1.0762000e-02
   8.5668500e-01  -2.6812600e-01  -1.6940600e-01
   8.5669800e-01  -2.6618500e-01  -8.1156000e-02
   8.5669900e-01  -2.7399900e-01  -1.4186000e-01
   8.5674000e-01  -2.5847000e-01   5.9283000e-02
   8.5675100e-01  -2.6426900e-01  -2.1572000e-02
   8.5676800e-01  -2.6622300e-01   5.4024000e-02
   8.5677200e-01  -2.6817400e-01  -4.3229000e-02
   8.5677400e-01  -2.7012700e-01  -1.3614200e-01
   8.5678600e-01  -2.7404700e-01  -1.4743200e-01
   8.5682400e-01  -2.7406900e-01  -1.6978400e-01
   8.5685700e-01  -2.5467200e-01   5.9216000e-02
   8.5689300e-01  -2.7019200e-01  -1.4170100e-01
   8.5690500e-01  -2.5662700e-01   6.4663000e-02
   8.5692500e-01  -2.6436400e-01  -1.0787000e-02
   8.5693400e-01  -2.7217100e-01   1.0870100e-01
   8.5695000e-01  -2.6632300e-01  -1.3599000e-01
   8.5696900e-01  -2.8004800e-01  -1.5895000e-01
   8.5697200e-01  -2.7415100e-01  -1.0329100e-01
   8.5698300e-01  -2.6439600e-01   0.0000000e+00
   8.5711200e-01  -2.7227000e-01  -1.3629500e-01
   8.5711500e-01  -2.6836200e-01  -1.0857800e-01
   8.5712100e-01  -2.6641700e-01  -7.5759000e-02
   8.5713900e-01  -2.5289700e-01   8.6255000e-02
   8.5714700e-01  -2.7621200e-01  -1.6997300e-01
   8.5714900e-01  -2.6256500e-01  -6.4810000e-02
   8.5715000e-01  -2.6256600e-01  -9.7436000e-02
   8.5721400e-01  -2.6646800e-01   1.6198000e-02
   8.5724000e-01  -2.5680600e-01   5.9283000e-02
   8.5728000e-01  -2.8219700e-01  -1.5912700e-01
   8.5729300e-01  -2.6070400e-01   7.0200000e-02
   8.5729400e-01  -2.7237100e-01  -8.6843000e-02
   8.5729700e-01  -2.6846300e-01  -1.3614200e-01
   8.5731200e-01  -2.7042400e-01  -1.2518600e-01
   8.5733900e-01  -2.6848600e-01  -2.7025000e-02
   8.5735500e-01  -2.7240400e-01  -1.6978400e-01
   8.5740200e-01  -2.4538200e-01  -1.7382500e-01
   8.5748400e-01  -2.6274700e-01  -5.9418000e-02
   8.5748400e-01  -2.6274700e-01   5.9418000e-02
   8.5749100e-01  -2.7052300e-01  -1.3073700e-01
   8.5751100e-01  -2.7838300e-01  -1.5895000e-01
   8.5751100e-01  -2.6663100e-01   9.2148000e-02
   8.5751400e-01  -2.6663200e-01  -7.0360000e-02
   8.5753500e-01  -2.8432000e-01  -1.7054000e-01
   8.5754700e-01  -2.5697000e-01   5.3901000e-02
   8.5756400e-01  -2.8433700e-01  -1.5369500e-01
   8.5758200e-01  -2.6861900e-01  -1.6400400e-01
   8.5762400e-01  -2.9030600e-01  -1.5965800e-01
   8.5763600e-01  -2.6475100e-01  -8.6647000e-02
   8.5765100e-01  -2.7256900e-01  -1.2532600e-01
   8.5765700e-01  -2.6090000e-01   6.4810000e-02
   8.5766100e-01  -2.6284300e-01  -9.2044000e-02
   8.5772000e-01  -2.7456800e-01  -1.6437000e-01
   8.5774500e-01  -2.7262100e-01  -8.1431000e-02
   8.5777600e-01  -2.6096500e-01   8.6549000e-02
   8.5779000e-01  -2.6291300e-01  -5.4024000e-02
   8.5779000e-01  -2.6291300e-01   5.4024000e-02
   8.5782400e-01  -2.5711800e-01   4.8517000e-02
   8.5782900e-01  -2.7266700e-01  -1.3088400e-01
   8.5784400e-01  -2.6294200e-01   3.2390000e-02
   8.5786400e-01  -2.6877400e-01  -9.2252000e-02
   8.5786600e-01  -2.6877600e-01  -3.7872000e-02
   8.5799200e-01  -2.6108200e-01   5.9418000e-02
   8.5799200e-01  -2.5720900e-01   1.6161000e-02
   8.5799300e-01  -2.6689400e-01   8.6745000e-02
   8.5801400e-01  -2.6885700e-01  -1.3073700e-01
   8.5802600e-01  -2.6496400e-01  -3.7829000e-02
   8.5803000e-01  -2.6496600e-01  -7.0360000e-02
   8.5804300e-01  -2.7671300e-01  -1.6455300e-01
   8.5806600e-01  -2.6306300e-01  -4.8627000e-02
   8.5806600e-01  -2.6306300e-01   4.8627000e-02
   8.5807100e-01  -2.5725100e-01   4.3130000e-02
   8.5811400e-01  -2.8267100e-01  -1.5369500e-01
   8.5814200e-01  -2.6310400e-01  -8.6647000e-02
   8.5816700e-01  -2.7285600e-01  -7.6016000e-02
   8.5821300e-01  -2.6701500e-01  -5.9553000e-02
   8.5825100e-01  -2.7290200e-01  -1.6437000e-01
   8.5829000e-01  -2.5736800e-01   3.7743000e-02
   8.5829900e-01  -2.6124700e-01   5.4024000e-02
   8.5831200e-01  -2.5931600e-01  -1.7480100e-01
   8.5831400e-01  -2.6319800e-01  -4.3229000e-02
   8.5831400e-01  -2.6319800e-01   4.3229000e-02
   8.5833300e-01  -2.6513200e-01  -1.3614200e-01
   8.5834500e-01  -2.6903900e-01  -8.6843000e-02
   8.5835600e-01  -2.6322000e-01  -1.0305800e-01
   8.5835900e-01  -2.5740500e-01   8.1064000e-02
   8.5837500e-01  -2.6515400e-01  -2.7025000e-02
   8.5837900e-01  -2.7493600e-01  -2.7117000e-02
   8.5842900e-01  -2.8483100e-01  -1.6510200e-01
   8.5844500e-01  -2.6714200e-01   8.1339000e-02
   8.5845200e-01  -2.6519600e-01  -1.4170100e-01
   8.5845800e-01  -2.9078800e-01  -1.5420800e-01
   8.5850900e-01  -2.6522800e-01   8.6745000e-02
   8.5851000e-01  -2.7500900e-01  -2.1694000e-02
   8.5851300e-01  -2.6136300e-01   2.6994000e-02
   8.5853300e-01  -2.6331600e-01   3.7829000e-02
   8.5853500e-01  -2.6331700e-01   9.2148000e-02
   8.5856100e-01  -2.7307400e-01  -7.0599000e-02
   8.5857600e-01  -2.6139700e-01   4.8627000e-02
   8.5864400e-01  -2.6143400e-01   2.1596000e-02
   8.5870300e-01  -2.6923600e-01  -1.2532600e-01
   8.5873000e-01  -2.6534800e-01  -5.9553000e-02
   8.5874600e-01  -2.6148900e-01   1.6198000e-02
   8.5877500e-01  -2.6732200e-01  -1.1423500e-01
   8.5879700e-01  -2.6928800e-01  -8.1431000e-02
   8.5881400e-01  -2.5764800e-01  -1.7480100e-01
   8.5882400e-01  -2.6153100e-01   4.3229000e-02
   8.5883700e-01  -2.7126700e-01  -1.1991100e-01
   8.5885400e-01  -2.6931900e-01   1.0882300e-01
   8.5886800e-01  -2.6737400e-01   7.5931000e-02
   8.5888300e-01  -2.6350600e-01   2.7025000e-02
   8.5889600e-01  -2.5382800e-01   7.5587000e-02
   8.5890200e-01  -2.5190300e-01   7.0121000e-02
   8.5890900e-01  -2.7719900e-01  -1.5912700e-01
   8.5892500e-01  -2.7327600e-01  -6.5178000e-02
   8.5893700e-01  -2.7328300e-01  -1.1449200e-01
   8.5894200e-01  -2.5385200e-01  -1.7460600e-01
   8.5894400e-01  -2.5771800e-01  -1.1937300e-01
   8.5896200e-01  -2.6547500e-01   8.1339000e-02
   8.5901400e-01  -2.6357700e-01  -2.1621000e-02
   8.5901700e-01  -2.6357900e-01   8.6745000e-02
   8.5901900e-01  -2.5969500e-01  -2.6994000e-02
   8.5903600e-01  -2.6551500e-01  -5.4146000e-02
   8.5904200e-01  -2.6164900e-01   3.7829000e-02
   8.5905200e-01  -2.6552300e-01  -1.3073700e-01
   8.5911600e-01  -2.6363300e-01  -1.6216000e-02
   8.5911800e-01  -2.7338400e-01  -1.5895000e-01
   8.5917500e-01  -2.7341500e-01  -1.2004600e-01
   8.5918900e-01  -2.6367200e-01  -1.0811000e-02
   8.5920200e-01  -2.5592200e-01   4.8572000e-02
   8.5922100e-01  -2.6952100e-01  -7.6016000e-02
   8.5922200e-01  -2.6952100e-01  -2.1670000e-02
   8.5923200e-01  -2.6952700e-01  -1.4759700e-01
   8.5923200e-01  -2.6175100e-01   3.2427000e-02
   8.5925300e-01  -2.6563300e-01   2.7055000e-02
   8.5926000e-01  -2.7346200e-01  -5.9755000e-02
   8.5926200e-01  -2.6563800e-01   9.7767000e-02
   8.5929500e-01  -2.8532400e-01  -1.5965800e-01
   8.5930200e-01  -2.5791000e-01  -1.0845600e-01
   8.5931300e-01  -2.6566600e-01  -4.8737000e-02
   8.5932300e-01  -2.6957800e-01  -1.6253000e-02
   8.5932500e-01  -2.5986000e-01  -1.0799000e-02
   8.5936900e-01  -2.5988400e-01  -5.4000000e-03
   8.5937300e-01  -2.8140700e-01  -2.7209000e-02
   8.5937500e-01  -2.6765100e-01  -1.0882300e-01
   8.5938400e-01  -2.6570400e-01   2.1645000e-02
   8.5941300e-01  -2.6379400e-01  -7.0439000e-02
   8.5942300e-01  -2.7551800e-01  -1.5352400e-01
   8.5945100e-01  -2.5605400e-01   4.3180000e-02
   8.5945400e-01  -2.6187100e-01  -4.8682000e-02
   8.5947000e-01  -2.6382500e-01   8.1339000e-02
   8.5953200e-01  -2.6578500e-01  -1.1977700e-01
   8.5955100e-01  -2.5998100e-01   9.2148000e-02
   8.5955900e-01  -2.6580000e-01   1.0823000e-02
   8.5960300e-01  -2.6582400e-01   5.4120000e-03
   8.5961500e-01  -2.6973800e-01  -7.0599000e-02
   8.5965700e-01  -2.5423200e-01   6.4810000e-02
   8.5969900e-01  -2.6200300e-01   1.0811000e-02
   8.5970200e-01  -2.6200500e-01  -4.3278000e-02
   8.5973900e-01  -2.6008200e-01   3.2427000e-02
   8.5974200e-01  -2.6589900e-01  -1.2532600e-01
   8.5975300e-01  -2.6785800e-01  -1.4759700e-01
   8.5978800e-01  -2.6787700e-01  -1.6997300e-01
   8.5980100e-01  -2.6400400e-01  -1.1423500e-01
   8.5983300e-01  -2.5819300e-01  -4.3229000e-02
   8.5983700e-01  -2.6595100e-01  -8.1431000e-02
   8.5987400e-01  -2.5821600e-01  -1.0305800e-01
   8.5989200e-01  -2.6405400e-01   2.1645000e-02
   8.5989900e-01  -2.6016900e-01   2.7025000e-02
   8.5991400e-01  -2.6406600e-01  -1.4743200e-01
   8.5994600e-01  -2.5438500e-01   4.3180000e-02
   8.5998100e-01  -2.6215600e-01   8.1339000e-02
   8.5999200e-01  -2.6994500e-01  -1.1449200e-01
   8.5999500e-01  -2.6410900e-01   1.6235000e-02
   8.6001100e-01  -2.6995600e-01  -1.4217800e-01
   8.6005500e-01  -2.6219600e-01  -5.4146000e-02
   8.6006800e-01  -2.6414900e-01   1.0823000e-02
   8.6010700e-01  -2.6028100e-01  -1.6959500e-01
   8.6014600e-01  -2.6612000e-01   6.5105000e-02
   8.6016300e-01  -2.6612900e-01  -1.1436300e-01
   8.6023200e-01  -2.5453600e-01   8.1156000e-02
   8.6024200e-01  -2.5841300e-01   3.2427000e-02
   8.6025100e-01  -2.6424800e-01  -1.2532600e-01
   8.6026100e-01  -2.6618200e-01   7.6016000e-02
   8.6030500e-01  -2.7601000e-01  -1.5930400e-01
   8.6040200e-01  -2.6433100e-01  -1.0882300e-01
   8.6040300e-01  -2.5849900e-01  -2.7025000e-02
   8.6040300e-01  -2.5849900e-01   2.7025000e-02
   8.6040400e-01  -2.6238400e-01  -2.1645000e-02
   8.6040600e-01  -2.6238500e-01   7.5931000e-02
   8.6041700e-01  -2.5850600e-01  -9.7657000e-02
   8.6043000e-01  -2.6434500e-01  -1.3088400e-01
   8.6047700e-01  -2.5273500e-01  -5.3930000e-03
   8.6050600e-01  -2.6243900e-01  -1.6235000e-02
   8.6053400e-01  -2.5856900e-01   2.1621000e-02
   8.6054800e-01  -2.6051700e-01   1.0870100e-01
   8.6061800e-01  -2.3749000e-01  -1.7402100e-01
   8.6062300e-01  -2.6250200e-01  -5.4120000e-03
   8.6062600e-01  -2.6250400e-01  -5.9620000e-02
   8.6069500e-01  -2.6448900e-01  -1.4201900e-01
   8.6071000e-01  -2.5866300e-01   1.0811000e-02
   8.6075200e-01  -2.5097300e-01   8.6549000e-02
   8.6076500e-01  -2.6645700e-01   1.0894600e-01
   8.6078400e-01  -2.5098900e-01  -1.7480100e-01
   8.6088800e-01  -2.4527600e-01   8.0972000e-02
   8.6091200e-01  -2.6460700e-01  -1.1991100e-01
   8.6093100e-01  -2.5878100e-01  -9.2252000e-02
   8.6093100e-01  -2.5878100e-01   9.2252000e-02
   8.6100100e-01  -2.6854100e-01  -9.2564000e-02
   8.6102100e-01  -2.6659700e-01  -6.5178000e-02
   8.6103600e-01  -2.7052000e-01  -1.5912700e-01
   8.6104900e-01  -2.5496900e-01   3.7829000e-02
   8.6105300e-01  -2.5497100e-01   7.0360000e-02
   8.6105700e-01  -2.4728300e-01   0.0000000e+00
   8.6108300e-01  -2.5886200e-01  -1.3073700e-01
   8.6109800e-01  -2.7055400e-01  -1.2018100e-01
   8.6112000e-01  -2.2449400e-01  -1.7343500e-01
   8.6113800e-01  -2.6666000e-01  -1.4776200e-01
   8.6116900e-01  -2.6667700e-01  -1.7016200e-01
   8.6123900e-01  -2.5507000e-01   3.2427000e-02
   8.6132800e-01  -2.6288300e-01  -1.6997300e-01
   8.6136000e-01  -2.4552000e-01  -1.7460600e-01
   8.6137000e-01  -2.7266700e-01  -1.5930400e-01
   8.6140000e-01  -2.5515500e-01   2.7025000e-02
   8.6141500e-01  -2.5904000e-01   8.6843000e-02
   8.6143400e-01  -2.5711000e-01   3.7872000e-02
   8.6145900e-01  -2.6295400e-01  -1.0836000e-02
   8.6151700e-01  -2.6298500e-01   0.0000000e+00
   8.6151800e-01  -2.6493600e-01   9.7988000e-02
   8.6155300e-01  -2.5717400e-01   1.0870100e-01
   8.6160100e-01  -2.4756600e-01   6.4810000e-02
   8.6162400e-01  -2.5721100e-01   3.2464000e-02
   8.6162800e-01  -2.4950500e-01   3.7786000e-02
   8.6163300e-01  -2.6304800e-01  -1.2546700e-01
   8.6163600e-01  -2.5915800e-01  -5.4120000e-03
   8.6164600e-01  -2.6500500e-01   7.6102000e-02
   8.6170300e-01  -2.6503600e-01  -1.5335300e-01
   8.6175700e-01  -2.5534500e-01   5.9553000e-02
   8.6176000e-01  -2.4957400e-01  -1.0845600e-01
   8.6177500e-01  -2.5923300e-01  -1.2532600e-01
   8.6178500e-01  -2.5729700e-01   2.7055000e-02
   8.6180400e-01  -2.7290700e-01   1.0931300e-01
   8.6181900e-01  -2.4960500e-01   3.2390000e-02
   8.6184700e-01  -2.6511500e-01   1.0352400e-01
   8.6186900e-01  -2.6512700e-01   5.4240000e-03
   8.6187700e-01  -2.7098200e-01  -1.5369500e-01
   8.6188400e-01  -2.6513400e-01   0.0000000e+00
   8.6191700e-01  -2.5736800e-01   2.1645000e-02
   8.6193700e-01  -2.4774100e-01  -1.0294200e-01
   8.6199600e-01  -2.6129600e-01  -1.0340700e-01
   8.6202000e-01  -2.5742200e-01   1.6235000e-02
   8.6202900e-01  -2.5355400e-01   8.6745000e-02
   8.6204200e-01  -2.6522000e-01   7.0678000e-02
   8.6205100e-01  -2.5550000e-01   1.0870100e-01
   8.6207100e-01  -2.6716900e-01  -1.6473600e-01
   8.6212700e-01  -2.5747900e-01   1.0329100e-01
   8.6214700e-01  -2.6527700e-01   1.0906800e-01
   8.6215200e-01  -2.5170800e-01  -1.0857800e-01
   8.6220200e-01  -2.5364500e-01  -1.0811000e-02
   8.6220200e-01  -2.5364500e-01   1.0811000e-02
   8.6221100e-01  -2.7313200e-01  -1.5386600e-01
   8.6224600e-01  -2.5366800e-01   5.4060000e-03
   8.6224800e-01  -2.4406000e-01   8.1064000e-02
   8.6226100e-01  -2.5367600e-01   0.0000000e+00
   8.6229600e-01  -2.6340600e-01  -1.2004600e-01
   8.6230800e-01  -2.5951800e-01  -1.4759700e-01
   8.6240800e-01  -2.6541900e-01   6.5252000e-02
   8.6242400e-01  -2.5376200e-01   9.2252000e-02
   8.6242900e-01  -2.5764000e-01  -1.0882300e-01
   8.6248300e-01  -2.4802500e-01  -9.7547000e-02
   8.6248600e-01  -2.5379400e-01   8.1339000e-02
   8.6251600e-01  -2.4996900e-01  -9.2148000e-02
   8.6256000e-01  -2.6939500e-01  -1.0375600e-01
   8.6257700e-01  -2.5000100e-01   8.1248000e-02
   8.6261400e-01  -2.5195100e-01   1.6216000e-02
   8.6262600e-01  -2.5580500e-01   1.0329100e-01
   8.6263500e-01  -2.5581000e-01  -5.4120000e-03
   8.6263500e-01  -2.5581000e-01   5.4120000e-03
   8.6265000e-01  -2.5581800e-01   0.0000000e+00
   8.6266000e-01  -2.6360300e-01  -1.0906800e-01
   8.6267200e-01  -2.6165900e-01   2.1694000e-02
   8.6267200e-01  -2.5776900e-01   9.7877000e-02
   8.6267500e-01  -2.4428000e-01   7.5673000e-02
   8.6272800e-01  -2.5201000e-01  -1.0317500e-01
   8.6273700e-01  -2.5201500e-01  -5.9553000e-02
   8.6274800e-01  -2.6560300e-01  -5.4300000e-03
   8.6277500e-01  -2.6171500e-01   1.6272000e-02
   8.6278200e-01  -2.1030000e-01  -1.6751500e-01
   8.6281400e-01  -2.5590500e-01  -7.0519000e-02
   8.6285000e-01  -2.1405200e-01  -1.6770400e-01
   8.6286700e-01  -2.2157700e-01  -1.7363000e-01
   8.6290900e-01  -2.5210600e-01   9.2252000e-02
   8.6291200e-01  -2.5402000e-01   7.5931000e-02
   8.6292300e-01  -2.6763300e-01  -1.5369500e-01
   8.6292800e-01  -2.5596500e-01  -1.0882300e-01
   8.6292900e-01  -2.6374800e-01  -1.1462000e-01
   8.6294400e-01  -2.6764500e-01  -1.5930400e-01
   8.6294700e-01  -2.5597500e-01   5.4208000e-02
   8.6297500e-01  -2.5987500e-01  -1.3660100e-01
   8.6300200e-01  -2.5022300e-01   8.6745000e-02
   8.6300400e-01  -2.5022400e-01   7.5845000e-02
   8.6304600e-01  -2.5217700e-01  -5.4146000e-02
   8.6308400e-01  -2.4641200e-01   8.6647000e-02
   8.6313400e-01  -2.5413600e-01   5.9620000e-02
   8.6317500e-01  -2.5998200e-01  -7.6102000e-02
   8.6317900e-01  -2.5998400e-01  -2.1694000e-02
   8.6319900e-01  -2.5610900e-01  -1.1436300e-01
   8.6320900e-01  -2.6000000e-01  -1.7016200e-01
   8.6322700e-01  -2.5612300e-01   4.8793000e-02
   8.6323500e-01  -2.6391300e-01  -1.0364000e-01
   8.6325900e-01  -2.1612300e-01  -1.7343500e-01
   8.6327100e-01  -2.5420900e-01  -1.2532600e-01
   8.6327300e-01  -2.5229700e-01  -9.7767000e-02
   8.6327300e-01  -2.5229700e-01   9.7767000e-02
   8.6327500e-01  -2.6978700e-01  -1.6510200e-01
   8.6328200e-01  -2.6003900e-01  -1.6272000e-02
   8.6331700e-01  -2.2368200e-01  -1.7382500e-01
   8.6332500e-01  -2.5232400e-01  -4.8737000e-02
   8.6333000e-01  -2.5812000e-01  -5.4269000e-02
   8.6335500e-01  -2.6007800e-01  -1.0848000e-02
   8.6337000e-01  -2.4848600e-01  -6.4958000e-02
   8.6339700e-01  -2.5043000e-01   9.2252000e-02
   8.6340100e-01  -2.5621600e-01  -1.6253000e-02
   8.6340200e-01  -2.5043200e-01   7.0439000e-02
   8.6340600e-01  -2.6596000e-01  -1.7054000e-01
   8.6347500e-01  -2.5625500e-01  -1.0836000e-02
   8.6348600e-01  -2.6404800e-01  -8.1707000e-02
   8.6350300e-01  -2.5627000e-01  -1.0340700e-01
   8.6357200e-01  -2.6019400e-01  -7.0678000e-02
   8.6357500e-01  -2.5245500e-01  -4.3327000e-02
   8.6357600e-01  -2.5825100e-01  -1.1449200e-01
   8.6359500e-01  -2.5826100e-01  -1.4217800e-01
   8.6360400e-01  -2.4668200e-01   1.0857800e-01
   8.6360700e-01  -2.5247200e-01   1.0329100e-01
   8.6366600e-01  -2.5441700e-01   9.7877000e-02
   8.6367800e-01  -2.5442300e-01   6.5105000e-02
   8.6370700e-01  -2.6026600e-01  -5.4330000e-02
   8.6372200e-01  -2.5444700e-01   4.8793000e-02
   8.6375200e-01  -2.5061500e-01   2.7055000e-02
   8.6376200e-01  -2.5062000e-01  -9.7767000e-02
   8.6377000e-01  -2.5062400e-01   6.5031000e-02
   8.6377900e-01  -2.6420700e-01  -9.8208000e-02
   8.6379600e-01  -2.5257100e-01  -3.7914000e-02
   8.6382900e-01  -2.5644300e-01  -5.4269000e-02
   8.6383100e-01  -2.4679900e-01  -2.7025000e-02
   8.6385300e-01  -2.5260100e-01   8.1431000e-02
   8.6387800e-01  -2.4682400e-01  -1.1410600e-01
   8.6388500e-01  -2.5068400e-01   2.1645000e-02
   8.6390200e-01  -2.5842400e-01  -5.9755000e-02
   8.6390500e-01  -2.6427500e-01  -8.7235000e-02
   8.6391200e-01  -2.6427900e-01  -7.6274000e-02
   8.6393100e-01  -2.6233600e-01  -9.2668000e-02
   8.6393600e-01  -2.5456000e-01  -1.1991100e-01
   8.6394300e-01  -2.6234300e-01  -7.0758000e-02
   8.6394600e-01  -2.5071600e-01  -1.6978400e-01
   8.6396400e-01  -2.4686800e-01  -2.1621000e-02
   8.6396900e-01  -2.4687100e-01   7.5845000e-02
   8.6398600e-01  -2.6041600e-01  -4.8903000e-02
   8.6398800e-01  -2.5073800e-01   1.6235000e-02
   8.6404500e-01  -2.6239700e-01  -1.0919000e-01
   8.6406700e-01  -2.4692100e-01  -1.6216000e-02
   8.6410500e-01  -2.5080000e-01   5.4120000e-03
   8.6411500e-01  -2.6048500e-01  -1.6473600e-01
   8.6414700e-01  -2.1281600e-01  -1.6789300e-01
   8.6414900e-01  -2.7026500e-01  -1.5965800e-01
   8.6416500e-01  -2.5276500e-01  -6.5105000e-02
   8.6417300e-01  -2.5662500e-01  -8.7039000e-02
   8.6417800e-01  -2.5662800e-01  -7.6102000e-02
   8.6418200e-01  -2.5663000e-01   2.1694000e-02
   8.6420100e-01  -2.2790100e-01  -1.7421600e-01
   8.6425300e-01  -2.6055900e-01   1.0364000e-01
   8.6427700e-01  -2.4895800e-01  -1.1423500e-01
   8.6428100e-01  -2.5282600e-01  -2.1670000e-02
   8.6428500e-01  -2.5668400e-01   1.6272000e-02
   8.6428500e-01  -2.5089300e-01  -3.7914000e-02
   8.6429500e-01  -2.6448500e-01  -9.2772000e-02
   8.6429500e-01  -2.6058100e-01   0.0000000e+00
   8.6430100e-01  -2.5475200e-01   1.0894600e-01
   8.6430900e-01  -2.6449300e-01  -7.0838000e-02
   8.6431100e-01  -2.6645100e-01  -1.6510200e-01
   8.6431100e-01  -2.6254000e-01  -6.5325000e-02
   8.6432600e-01  -2.5476500e-01  -1.3103000e-01
   8.6432600e-01  -2.5476500e-01   5.4269000e-02
   8.6435000e-01  -2.5866300e-01  -1.3675300e-01
   8.6435800e-01  -2.5672300e-01   1.0848000e-02
   8.6436800e-01  -2.4707700e-01   7.0439000e-02
   8.6437000e-01  -2.4900700e-01  -2.1645000e-02
   8.6438400e-01  -2.5288000e-01  -1.6253000e-02
   8.6441700e-01  -2.6259700e-01  -8.7235000e-02
   8.6445800e-01  -2.5291900e-01  -1.0836000e-02
   8.6447600e-01  -2.5099400e-01  -3.2501000e-02
   8.6449000e-01  -2.5873800e-01  -4.8903000e-02
   8.6450200e-01  -2.5294200e-01  -5.4180000e-03
   8.6450200e-01  -2.5294200e-01   5.4180000e-03
   8.6450500e-01  -2.6069300e-01  -8.1707000e-02
   8.6451700e-01  -2.5295000e-01   0.0000000e+00
   8.6454300e-01  -2.3948400e-01   8.1156000e-02
   8.6454600e-01  -2.5488200e-01   2.7117000e-02
   8.6454600e-01  -2.5488100e-01  -9.7988000e-02
   8.6454900e-01  -2.4910000e-01   4.3327000e-02
   8.6456600e-01  -2.5683300e-01  -9.2564000e-02
   8.6457200e-01  -2.5489500e-01  -1.1449200e-01
   8.6457900e-01  -2.3758900e-01  -1.7480100e-01
   8.6459400e-01  -2.4912300e-01   5.9620000e-02
   8.6463100e-01  -2.5686800e-01  -8.1615000e-02
   8.6463800e-01  -2.5107800e-01  -2.7086000e-02
   8.6464000e-01  -2.2999500e-01  -1.7441100e-01
   8.6464300e-01  -2.5108000e-01   9.7877000e-02
   8.6464900e-01  -2.6272200e-01  -5.9890000e-02
   8.6466900e-01  -2.6273200e-01   0.0000000e+00
   8.6467700e-01  -2.6469200e-01  -6.5399000e-02
   8.6474100e-01  -2.5887100e-01  -1.0860000e-02
   8.6474100e-01  -2.5887100e-01   1.0860000e-02
   8.6475700e-01  -2.5888000e-01  -1.0364000e-01
   8.6476600e-01  -2.5114500e-01  -8.6941000e-02
   8.6477000e-01  -2.4921500e-01  -7.0519000e-02
   8.6477000e-01  -2.4921500e-01   3.7914000e-02
   8.6478000e-01  -2.4729100e-01  -4.8737000e-02
   8.6478200e-01  -2.5500600e-01   1.6272000e-02
   8.6478500e-01  -2.5889500e-01  -5.4300000e-03
   8.6478500e-01  -2.5889500e-01   5.4300000e-03
   8.6479900e-01  -2.6085100e-01   9.8208000e-02
   8.6480000e-01  -2.5890300e-01   0.0000000e+00
   8.6482700e-01  -2.4924400e-01  -8.1431000e-02
   8.6484100e-01  -2.4539600e-01   9.2252000e-02
   8.6485600e-01  -2.5504500e-01   4.3425000e-02
   8.6487400e-01  -2.6284300e-01  -8.1799000e-02
   8.6487800e-01  -2.5505600e-01   1.0352400e-01
   8.6488400e-01  -2.4927400e-01  -1.0882300e-01
   8.6489900e-01  -2.5895500e-01  -1.2574800e-01
   8.6490400e-01  -2.4928400e-01  -5.4208000e-02
   8.6490400e-01  -2.4928400e-01   5.4208000e-02
   8.6494400e-01  -2.5703400e-01  -6.5252000e-02
   8.6494700e-01  -2.5124000e-01   1.0836000e-02
   8.6495500e-01  -2.5898600e-01  -7.0758000e-02
   8.6495800e-01  -2.6288800e-01  -5.4453000e-02
   8.6496200e-01  -2.4931500e-01   3.2501000e-02
   8.6497200e-01  -2.3970200e-01   7.5759000e-02
   8.6497600e-01  -2.5125500e-01   1.0340700e-01
   8.6499100e-01  -2.6095400e-01  -1.5930400e-01
   8.6499100e-01  -2.5705900e-01  -4.8903000e-02
   8.6499400e-01  -2.7072800e-01  -1.5420800e-01
   8.6500600e-01  -2.5127100e-01   0.0000000e+00
   8.6503100e-01  -2.4742100e-01  -4.3327000e-02
   8.6506300e-01  -2.5515400e-01  -9.2564000e-02
   8.6506500e-01  -2.5709800e-01  -2.1719000e-02
   8.6507700e-01  -2.5516100e-01   3.8000000e-02
   8.6509200e-01  -2.5905800e-01   5.4391000e-02
   8.6512400e-01  -2.4939900e-01   2.7086000e-02
   8.6516300e-01  -2.5328900e-01   7.6102000e-02
   8.6516800e-01  -2.5135500e-01  -7.0599000e-02
   8.6518400e-01  -2.4943000e-01  -4.8793000e-02
   8.6518400e-01  -2.4943000e-01   4.8793000e-02
   8.6518700e-01  -2.6692600e-01  -1.5965800e-01
   8.6521500e-01  -2.4558900e-01  -6.5031000e-02
   8.6524600e-01  -2.4753200e-01   9.2356000e-02
   8.6525200e-01  -2.4753500e-01  -3.7914000e-02
   8.6525600e-01  -2.4946700e-01  -7.6016000e-02
   8.6525700e-01  -2.4946800e-01   2.1670000e-02
   8.6526800e-01  -2.5526200e-01   3.2574000e-02
   8.6526900e-01  -2.4177100e-01   9.7657000e-02
   8.6528300e-01  -2.5721400e-01  -5.9823000e-02
   8.6530100e-01  -2.6307300e-01  -7.6360000e-02
   8.6531400e-01  -2.6307900e-01  -2.1768000e-02
   8.6532400e-01  -2.5918200e-01  -6.5325000e-02
   8.6533000e-01  -2.4564800e-01   8.6843000e-02
   8.6536000e-01  -2.4952200e-01   1.6253000e-02
   8.6537200e-01  -2.3990500e-01   7.0360000e-02
   8.6539700e-01  -2.4183600e-01  -1.7519100e-01
   8.6540600e-01  -2.3609400e-01   9.2044000e-02
   8.6541700e-01  -2.6313500e-01  -1.6327000e-02
   8.6542800e-01  -2.6118700e-01   1.0931300e-01
   8.6542800e-01  -2.3801800e-01   2.1596000e-02
   8.6543000e-01  -2.5923800e-01  -8.7235000e-02
   8.6543400e-01  -2.4956000e-01   1.0836000e-02
   8.6543500e-01  -2.4956100e-01  -4.3376000e-02
   8.6544200e-01  -2.5535400e-01  -6.5252000e-02
   8.6544400e-01  -2.4763500e-01  -3.2501000e-02
   8.6547800e-01  -2.4958300e-01   5.4180000e-03
   8.6547900e-01  -2.4958400e-01  -5.9688000e-02
   8.6555500e-01  -2.4576400e-01   5.9620000e-02
   8.6556300e-01  -2.5541800e-01   2.1719000e-02
   8.6556800e-01  -2.4192400e-01   4.3278000e-02
   8.6564600e-01  -2.4967100e-01   9.2460000e-02
   8.6564900e-01  -2.3813000e-01   5.4000000e-03
   8.6565300e-01  -2.5160800e-01  -7.6102000e-02
   8.6565400e-01  -2.5741000e-01  -3.2611000e-02
   8.6569100e-01  -2.6524000e-01  -1.6528500e-01
   8.6569800e-01  -2.6133200e-01  -6.5399000e-02
   8.6573900e-01  -2.5551100e-01  -4.3474000e-02
   8.6574200e-01  -2.4009300e-01   6.4958000e-02
   8.6575600e-01  -2.5552000e-01  -1.0364000e-01
   8.6575700e-01  -2.5360100e-01  -3.2574000e-02
   8.6575700e-01  -2.5360100e-01   3.2574000e-02
   8.6578100e-01  -2.5553300e-01  -5.9823000e-02
   8.6579000e-01  -2.4203700e-01   3.7872000e-02
   8.6580500e-01  -2.4396700e-01   8.6843000e-02
   8.6582100e-01  -2.5944600e-01  -9.2772000e-02
   8.6583600e-01  -2.3822400e-01   7.0360000e-02
   8.6584800e-01  -2.4977600e-01  -3.2538000e-02
   8.6591700e-01  -2.4787900e-01   1.0836000e-02
   8.6591900e-01  -2.5368600e-01   2.7147000e-02
   8.6594800e-01  -2.3254900e-01  -1.7480100e-01
   8.6596100e-01  -2.4790200e-01  -5.4180000e-03
   8.6596100e-01  -2.4790200e-01   5.4180000e-03
   8.6598200e-01  -2.4213500e-01   3.2464000e-02
   8.6603700e-01  -2.6151300e-01  -5.9958000e-02
   8.6605200e-01  -2.5375600e-01   2.1719000e-02
   8.6608200e-01  -2.4026600e-01   5.9553000e-02
   8.6609100e-01  -2.5569700e-01  -5.4391000e-02
   8.6611200e-01  -2.3645000e-01   1.0305800e-01
   8.6613500e-01  -2.4992500e-01   8.7039000e-02
   8.6614500e-01  -2.4221800e-01   2.7055000e-02
   8.6615800e-01  -2.5187300e-01   1.0906800e-01
   8.6620700e-01  -2.4417300e-01   3.7914000e-02
   8.6622900e-01  -2.5384900e-01   1.0860000e-02
   8.6627800e-01  -2.4228600e-01   2.1645000e-02
   8.6631200e-01  -2.5970800e-01  -1.7072900e-01
   8.6631600e-01  -2.5971000e-01  -7.6360000e-02
   8.6632200e-01  -2.4615900e-01   1.6253000e-02
   8.6637200e-01  -2.5584500e-01  -4.8958000e-02
   8.6639600e-01  -2.4619700e-01   1.0836000e-02
   8.6641900e-01  -2.3660400e-01   1.0857800e-01
   8.6643000e-01  -2.5587600e-01  -8.7235000e-02
   8.6643100e-01  -2.5395500e-01  -9.2668000e-02
   8.6644100e-01  -2.4622000e-01   5.4180000e-03
   8.6644400e-01  -2.5396200e-01   7.0758000e-02
   8.6644700e-01  -2.5588400e-01  -2.1744000e-02
   8.6644900e-01  -2.5396500e-01   3.8043000e-02
   8.6645500e-01  -2.4622800e-01   0.0000000e+00
   8.6650800e-01  -2.4818500e-01   6.5178000e-02
   8.6652000e-01  -2.4819200e-01   1.1449200e-01
   8.6654300e-01  -2.5207400e-01  -2.1719000e-02
   8.6654300e-01  -2.5013700e-01  -3.8000000e-02
   8.6655000e-01  -2.5593900e-01  -1.6308000e-02
   8.6656900e-01  -2.6571400e-01  -1.5983500e-01
   8.6659400e-01  -2.5016400e-01   8.1615000e-02
   8.6661800e-01  -2.4631100e-01  -7.0599000e-02
   8.6661800e-01  -2.4631100e-01   7.0599000e-02
   8.6666200e-01  -2.3672700e-01   9.7657000e-02
   8.6676200e-01  -2.4831700e-01  -1.2004600e-01
   8.6676400e-01  -2.5218900e-01  -5.4300000e-03
   8.6676700e-01  -2.5995000e-01  -8.1891000e-02
   8.6678500e-01  -2.3678800e-01   8.6745000e-02
   8.6679100e-01  -2.3679100e-01  -1.7519100e-01
   8.6679500e-01  -2.5801500e-01  -1.4825700e-01
   8.6681300e-01  -2.5415600e-01   6.5325000e-02
   8.6682700e-01  -2.4835000e-01  -1.0352400e-01
   8.6684800e-01  -2.4836100e-01  -5.9755000e-02
   8.6688900e-01  -2.5611800e-01  -8.1799000e-02
   8.6691600e-01  -2.6003000e-01  -3.2685000e-02
   8.6692000e-01  -2.5421200e-01  -8.7235000e-02
   8.6695900e-01  -2.4071100e-01   1.0329100e-01
   8.6697400e-01  -2.4649500e-01   9.7988000e-02
   8.6698800e-01  -2.4650200e-01   6.5178000e-02
   8.6700600e-01  -2.5812700e-01  -4.3572000e-02
   8.6702300e-01  -2.5038700e-01   7.6188000e-02
   8.6707900e-01  -2.6011600e-01  -2.7239000e-02
   8.6709600e-01  -2.5622700e-01  -1.3705900e-01
   8.6711200e-01  -2.5431300e-01   4.3523000e-02
   8.6712900e-01  -2.4850700e-01  -1.0906800e-01
   8.6715300e-01  -2.5433400e-01   5.9890000e-02
   8.6715900e-01  -2.4852200e-01  -5.4330000e-02
   8.6721100e-01  -2.6018700e-01  -2.1793000e-02
   8.6727200e-01  -2.4279300e-01   1.6253000e-02
   8.6728600e-01  -2.4665600e-01   4.3425000e-02
   8.6731500e-01  -2.6024200e-01  -1.6345000e-02
   8.6731800e-01  -2.5634400e-01  -7.6360000e-02
   8.6732500e-01  -2.5829600e-01  -1.3161700e-01
   8.6732900e-01  -2.4667800e-01  -5.9755000e-02
   8.6737600e-01  -2.4863500e-01  -9.8098000e-02
   8.6737900e-01  -2.5445300e-01  -8.1799000e-02
   8.6739000e-01  -2.4285400e-01   5.4180000e-03
   8.6739000e-01  -2.3901000e-01  -1.0823000e-02
   8.6740500e-01  -2.4286100e-01   0.0000000e+00
   8.6741700e-01  -2.6617200e-01  -1.5437900e-01
   8.6744000e-01  -2.4866800e-01   4.8903000e-02
   8.6750800e-01  -2.4677000e-01   3.8000000e-02
   8.6750900e-01  -2.4099100e-01   9.7877000e-02
   8.6754500e-01  -2.5065800e-01  -1.3132400e-01
   8.6755900e-01  -2.4679600e-01  -8.1615000e-02
   8.6758400e-01  -2.5843300e-01  -1.4281300e-01
   8.6760600e-01  -2.5262900e-01  -1.0873000e-02
   8.6764000e-01  -2.4683800e-01   5.4330000e-02
   8.6764600e-01  -2.5265000e-01   5.9890000e-02
   8.6767800e-01  -2.4300100e-01   1.0894600e-01
   8.6769200e-01  -2.4879800e-01   4.3474000e-02
   8.6770000e-01  -2.4686900e-01   3.2574000e-02
   8.6771800e-01  -2.5655500e-01  -7.0917000e-02
   8.6772800e-01  -2.5656000e-01  -3.8129000e-02
   8.6774500e-01  -2.5464500e-01   4.9013000e-02
   8.6775200e-01  -2.4882900e-01   0.0000000e+00
   8.6776300e-01  -2.4497100e-01   4.3425000e-02
   8.6780900e-01  -2.5467900e-01  -7.6360000e-02
   8.6786300e-01  -2.4695300e-01   2.7147000e-02
   8.6787200e-01  -2.5276800e-01  -8.1799000e-02
   8.6789600e-01  -2.4890400e-01  -9.2668000e-02
   8.6791400e-01  -2.4891300e-01   3.8043000e-02
   8.6792200e-01  -2.4698300e-01   4.8903000e-02
   8.6795700e-01  -2.5281300e-01   5.4453000e-02
   8.6798900e-01  -2.4701800e-01  -7.6188000e-02
   8.6799600e-01  -2.4702200e-01   2.1719000e-02
   8.6805500e-01  -2.4319300e-01   7.6102000e-02
   8.6807700e-01  -2.3743800e-01   3.7914000e-02
   8.6808900e-01  -2.4321000e-01  -1.7016200e-01
   8.6809000e-01  -2.6065500e-01  -1.6546800e-01
   8.6810300e-01  -2.3937000e-01   7.6016000e-02
   8.6810700e-01  -2.4901300e-01   3.2611000e-02
   8.6812600e-01  -2.3554700e-01  -1.7538600e-01
   8.6813500e-01  -2.3746700e-01   8.1431000e-02
   8.6817800e-01  -2.4518400e-01   3.2574000e-02
   8.6820900e-01  -2.5488900e-01  -7.0917000e-02
   8.6824500e-01  -2.5102200e-01  -1.2588900e-01
   8.6827000e-01  -2.4909700e-01   2.7178000e-02
   8.6827000e-01  -2.3753500e-01   3.2501000e-02
   8.6830800e-01  -2.5105500e-01   7.0838000e-02
   8.6831100e-01  -2.3947500e-01   1.0340700e-01
   8.6834100e-01  -2.4526800e-01   2.7147000e-02
   8.6834300e-01  -2.5883600e-01  -1.3736500e-01
   8.6834600e-01  -2.3565700e-01   1.0329100e-01
   8.6838600e-01  -2.4915800e-01  -8.7235000e-02
   8.6839300e-01  -2.4916100e-01  -7.6274000e-02
   8.6843400e-01  -2.3761800e-01   2.7086000e-02
   8.6844500e-01  -2.4339200e-01   9.2564000e-02
   8.6846700e-01  -2.4533200e-01   7.6188000e-02
   8.6847400e-01  -2.4533600e-01  -2.1719000e-02
   8.6847400e-01  -2.4533600e-01   2.1719000e-02
   8.6850500e-01  -2.3957300e-01  -7.0599000e-02
   8.6852000e-01  -2.4150400e-01   8.7039000e-02
   8.6852700e-01  -2.4729500e-01  -5.4391000e-02
   8.6855300e-01  -2.3193500e-01   7.0439000e-02
   8.6856600e-01  -2.3768400e-01   7.6016000e-02
   8.6856700e-01  -2.3768500e-01   2.1670000e-02
   8.6857500e-01  -2.5508100e-01  -1.4281300e-01
   8.6857800e-01  -2.4538900e-01  -1.6290000e-02
   8.6862000e-01  -2.4927900e-01   5.9890000e-02
   8.6875200e-01  -2.6492800e-01  -1.4891700e-01
   8.6877500e-01  -2.4742300e-01  -1.4249600e-01
   8.6879400e-01  -2.4936900e-01  -7.0838000e-02
   8.6880400e-01  -2.5712800e-01  -3.2722000e-02
   8.6880900e-01  -2.4744100e-01  -4.8958000e-02
   8.6882700e-01  -2.4358700e-01   6.5252000e-02
   8.6884700e-01  -2.4939600e-01  -8.1799000e-02
   8.6886000e-01  -2.4746700e-01  -1.4809200e-01
   8.6886200e-01  -2.3975400e-01   9.7988000e-02
