   8.8551900e-01  -5.1438200e-01  -1.0557900e-01
   8.8552100e-01  -5.5204100e-01  -1.2681700e-01
   8.8552700e-01  -5.8751000e-01   2.5719000e-02
   8.8553300e-01  -5.6551000e-01   3.1779000e-02
   8.8554800e-01  -5.4353700e-01   2.5130000e-02
   8.8558600e-01  -5.7650500e-01  -1.6759500e-01
   8.8558900e-01  -5.0678700e-01   2.4664000e-02
   8.8560900e-01  -5.8483200e-01  -1.3556600e-01
   8.8561500e-01  -5.6019300e-01   2.5351000e-02
   8.8563000e-01  -5.6288300e-01  -1.2755200e-01
   8.8563300e-01  -5.3782400e-01  -1.1319800e-01
   8.8565000e-01  -4.9673500e-01  -6.7579000e-02
   8.8565800e-01  -4.9925700e-01   6.1420000e-03
   8.8566600e-01  -5.5217000e-01  -1.3325300e-01
   8.8568100e-01  -5.0940800e-01  -6.1811000e-02
   8.8568400e-01  -5.3524000e-01  -1.0672500e-01
   8.8568500e-01  -5.0180100e-01  -7.3932000e-02
   8.8569000e-01  -5.0687200e-01   1.8499000e-02
   8.8569300e-01  -5.7936400e-01  -1.3518000e-01
   8.8573600e-01  -4.9680600e-01   1.8407000e-02
   8.8581300e-01  -5.0951900e-01  -8.6655000e-02
   8.8581900e-01  -5.2233100e-01   1.8646000e-02
   8.8590000e-01  -5.7404400e-01   3.1932000e-02
   8.8590400e-01  -5.0451200e-01   1.8480000e-02
   8.8592300e-01  -5.8512600e-01   2.5695000e-02
   8.8593000e-01  -6.0481200e-01   1.9474000e-02
   8.8595000e-01  -5.5779600e-01  -1.7249900e-01
   8.8595600e-01  -4.9698600e-01  -6.1443000e-02
   8.8595700e-01  -5.0964000e-01  -5.5637000e-02
   8.8597700e-01  -5.0457300e-01   1.2321000e-02
   8.8600100e-01  -5.9920000e-01   2.5891000e-02
   8.8600300e-01  -5.6593800e-01  -1.2779700e-01
   8.8601100e-01  -5.1223800e-01   1.8554000e-02
   8.8603600e-01  -4.9956800e-01  -5.5361000e-02
   8.8604200e-01  -4.8957900e-01  -3.0583000e-02
   8.8605300e-01  -4.8709900e-01  -3.6660000e-02
   8.8605600e-01  -6.3389500e-01  -1.9787000e-02
   8.8608600e-01  -4.9709300e-01  -7.3785000e-02
   8.8609300e-01  -6.2221200e-01   0.0000000e+00
   8.8611000e-01  -5.1999500e-01  -1.7557800e-01
   8.8612700e-01  -6.3396600e-01  -1.3192000e-02
   8.8614300e-01  -5.9369300e-01   2.5817000e-02
   8.8621400e-01  -4.8722900e-01  -3.0552000e-02
   8.8622400e-01  -6.3998600e-01  -8.6216000e-02
   8.8629000e-01  -4.9227600e-01  -4.2895000e-02
   8.8631500e-01  -5.1759400e-01   1.8609000e-02
   8.8631800e-01  -5.3579200e-01  -1.2583800e-01
   8.8634500e-01  -4.8733500e-01  -2.4443000e-02
   8.8636000e-01  -5.4425300e-01  -1.7134500e-01
   8.8636900e-01  -5.6087400e-01  -1.6632400e-01
   8.8638000e-01  -6.0239900e-01   1.9456000e-02
   8.8638800e-01  -5.1765600e-01   1.2407000e-02
   8.8639200e-01  -4.8986200e-01   6.1170000e-03
   8.8641200e-01  -5.5821200e-01   3.8022000e-02
   8.8642500e-01  -5.3326200e-01  -1.1934300e-01
   8.8643200e-01  -5.1769200e-01   6.2030000e-03
   8.8644900e-01  -5.3853700e-01   1.8812000e-02
   8.8648000e-01  -4.9741700e-01  -4.9166000e-02
   8.8648600e-01  -6.2551500e-01  -1.5205200e-01
   8.8652400e-01  -5.8568800e-01   3.2147000e-02
   8.8653000e-01  -4.9997500e-01  -6.1566000e-02
   8.8654300e-01  -5.1524700e-01   1.8591000e-02
   8.8656600e-01  -5.4154700e-01   3.1411000e-02
   8.8659200e-01  -5.5032100e-01  -1.2681700e-01
   8.8660700e-01  -5.3342000e-01  -1.2571600e-01
   8.8661300e-01  -4.9501400e-01  -6.7579000e-02
   8.8661600e-01  -5.1530800e-01   1.2394000e-02
   8.8667500e-01  -5.5307100e-01  -1.6568900e-01
   8.8667500e-01  -5.1279500e-01   2.4762000e-02
   8.8669900e-01  -4.9759600e-01  -4.3024000e-02
   8.8675300e-01  -5.6390100e-01  -1.6664200e-01
   8.8678900e-01  -5.0271500e-01  -6.7849000e-02
   8.8680100e-01  -5.0779800e-01  -8.6655000e-02
   8.8684700e-01  -6.1141800e-01  -1.6425700e-01
   8.8685700e-01  -5.0277100e-01  -8.0240000e-02
   8.8686800e-01  -6.1717100e-01  -1.2481000e-01
   8.8688600e-01  -5.3628600e-01  -1.1957600e-01
   8.8692100e-01  -5.3369300e-01   2.5032000e-02
   8.8694100e-01  -6.3773800e-01  -1.9842000e-02
   8.8695300e-01  -6.0010900e-01  -1.3024500e-01
   8.8696400e-01  -5.3372900e-01  -1.1308800e-01
   8.8697700e-01  -5.1815400e-01   2.4836000e-02
   8.8700400e-01  -4.9784700e-01  -5.5361000e-02
   8.8700900e-01  -5.5069200e-01  -1.6553000e-01
   8.8701700e-01  -6.2604000e-01   0.0000000e+00
   8.8705700e-01  -6.1735500e-01   6.5410000e-03
   8.8706300e-01  -5.0041400e-01  -8.0161000e-02
   8.8707400e-01  -6.0591200e-01  -1.5714800e-01
   8.8709500e-01  -5.0296800e-01  -6.1689000e-02
   8.8714300e-01  -5.0808300e-01  -9.2920000e-02
   8.8715800e-01  -5.0049200e-01   1.2308000e-02
   8.8719600e-01  -4.9549200e-01  -5.5306000e-02
   8.8720000e-01  -5.3131600e-01   2.5008000e-02
   8.8721700e-01  -5.3657500e-01  -1.3235300e-01
   8.8722000e-01  -6.2916900e-01   0.0000000e+00
   8.8725400e-01  -5.2615000e-01  -1.1899400e-01
   8.8729400e-01  -5.9197200e-01   2.5817000e-02
   8.8732600e-01  -6.0615400e-01  -1.2411200e-01
   8.8737200e-01  -5.0319700e-01  -5.5526000e-02
   8.8737800e-01  -5.4808000e-01   2.5228000e-02
   8.8741300e-01  -5.0576600e-01  -8.0400000e-02
   8.8741800e-01  -4.8820200e-01  -4.2852000e-02
   8.8742800e-01  -5.0071500e-01  -7.4006000e-02
   8.8744500e-01  -5.0579300e-01  -1.1154500e-01
   8.8744500e-01  -4.9569400e-01  -4.9166000e-02
   8.8745100e-01  -4.8326400e-01  -2.4419000e-02
   8.8747200e-01  -5.2894000e-01   2.4983000e-02
   8.8747800e-01  -5.5110900e-01  -1.3338100e-01
   8.8749400e-01  -6.1489200e-01   1.3069000e-02
   8.8750400e-01  -6.2360100e-01   6.5650000e-03
   8.8756100e-01  -5.2122900e-01  -1.1242700e-01
   8.8756500e-01  -5.1865300e-01  -1.0599600e-01
   8.8758300e-01  -5.8944100e-01   3.2239000e-02
   8.8765300e-01  -5.5663300e-01   3.1687000e-02
   8.8772700e-01  -6.0940000e-01  -1.3097900e-01
   8.8775500e-01  -6.0656600e-01  -1.5064500e-01
   8.8775800e-01  -6.4448100e-01  -3.3221000e-02
   8.8776300e-01  -5.0099200e-01  -6.7849000e-02
   8.8780500e-01  -5.5676900e-01  -1.6616600e-01
   8.8786200e-01  -5.9250700e-01  -1.6934300e-01
   8.8795700e-01  -5.0621800e-01  -1.0537100e-01
   8.8798400e-01  -4.9865000e-01  -9.2552000e-02
   8.8799300e-01  -6.0110100e-01  -1.6349300e-01
   8.8799900e-01  -5.2419100e-01   2.4934000e-02
   8.8803300e-01  -4.9869100e-01  -8.0161000e-02
   8.8808300e-01  -5.8158200e-01  -1.6839000e-01
   8.8812800e-01  -5.0636000e-01  -9.2920000e-02
   8.8818900e-01  -5.8168100e-01   2.5695000e-02
   8.8819200e-01  -5.2695400e-01  -1.2547100e-01
   8.8819300e-01  -6.0698800e-01  -1.3085700e-01
   8.8821900e-01  -5.0898100e-01  -9.9291000e-02
   8.8822700e-01  -4.9633500e-01  -8.0081000e-02
   8.8822800e-01  -5.3745500e-01  -1.7101500e-01
   8.8825200e-01  -6.0419100e-01  -1.6379900e-01
   8.8825500e-01  -4.8143500e-01  -3.0521000e-02
   8.8826500e-01  -5.4012500e-01  -1.2632800e-01
   8.8826700e-01  -6.1279400e-01  -1.5788200e-01
   8.8827200e-01  -5.1157800e-01  -1.0568300e-01
   8.8827400e-01  -5.2442600e-01  -1.1899400e-01
   8.8838700e-01  -4.8154000e-01  -2.4419000e-02
   8.8840700e-01  -6.0719300e-01  -1.4413600e-01
   8.8840800e-01  -4.9899900e-01  -8.6398000e-02
   8.8844000e-01  -5.0661900e-01  -9.9193000e-02
   8.8844200e-01  -5.1684900e-01   3.7286000e-02
   8.8848400e-01  -6.3928600e-01  -9.3004000e-02
   8.8849000e-01  -4.8162200e-01  -1.8315000e-02
   8.8851800e-01  -4.9158700e-01  -6.7579000e-02
   8.8852500e-01  -5.3508300e-01  -1.7085000e-01
   8.8854000e-01  -4.9410800e-01   6.1420000e-03
   8.8855200e-01  -5.0671200e-01  -8.6741000e-02
   8.8859300e-01  -4.9663400e-01  -7.3932000e-02
   8.8859900e-01  -5.2730300e-01   1.8738000e-02
   8.8860000e-01  -5.4333200e-01  -1.2657300e-01
   8.8860300e-01  -5.9320600e-01  -1.6288200e-01
   8.8860300e-01  -5.1698400e-01   3.1074000e-02
   8.8860400e-01  -4.9664200e-01  -8.6312000e-02
   8.8870100e-01  -5.7112900e-01   3.8353000e-02
   8.8873400e-01  -5.1709500e-01   2.4860000e-02
   8.8873800e-01  -6.2774000e-01  -1.1904000e-01
   8.8874300e-01  -6.1038100e-01  -1.5773500e-01
   8.8875500e-01  -5.1198200e-01  -9.9487000e-02
   8.8877200e-01  -4.9429700e-01  -7.3859000e-02
   8.8878300e-01  -4.9430600e-01  -8.6226000e-02
   8.8880000e-01  -5.1458200e-01  -1.0589200e-01
   8.8881700e-01  -5.6577300e-01  -1.4104100e-01
   8.8885600e-01  -5.3013200e-01   3.1288000e-02
   8.8886100e-01  -5.9626600e-01  -1.6981900e-01
   8.8887500e-01  -4.8193000e-01  -3.6660000e-02
   8.8890200e-01  -5.5237500e-01   3.7985000e-02
   8.8891900e-01  -5.8513900e-01  -1.3595100e-01
   8.8896200e-01  -5.3283800e-01  -1.1957600e-01
   8.8897500e-01  -5.0199000e-01  -8.6569000e-02
   8.8898600e-01  -4.9196700e-01  -3.6844000e-02
   8.8900200e-01  -4.8948200e-01  -6.1382000e-02
   8.8900700e-01  -5.4658700e-01   3.7875000e-02
   8.8902700e-01  -4.7958100e-01  -3.6623000e-02
   8.8903000e-01  -6.0779200e-01  -1.3762100e-01
   8.8903400e-01  -5.6328200e-01   3.8206000e-02
   8.8909500e-01  -4.9704400e-01   1.2308000e-02
   8.8910900e-01  -4.9457100e-01  -6.7714000e-02
   8.8911200e-01  -5.1484400e-01  -1.7557800e-01
   8.8911800e-01  -5.8532500e-01  -1.6886600e-01
   8.8912200e-01  -5.8532800e-01   3.2209000e-02
   8.8916700e-01  -5.4672800e-01   3.1564000e-02
   8.8917900e-01  -4.9462800e-01  -8.0081000e-02
   8.8918900e-01  -4.7970900e-01  -3.0521000e-02
   8.8919800e-01  -5.4675500e-01  -1.3969500e-01
   8.8919900e-01  -6.4593900e-01  -8.6694000e-02
   8.8919900e-01  -4.9464500e-01   1.8444000e-02
   8.8920200e-01  -5.1235600e-01   2.4811000e-02
   8.8920900e-01  -5.1236200e-01  -9.3288000e-02
   8.8923700e-01  -4.9716000e-01  -6.1627000e-02
   8.8925600e-01  -5.2786700e-01   2.5008000e-02
   8.8927200e-01  -4.9470400e-01   1.2296000e-02
   8.8928000e-01  -4.8970700e-01  -5.5250000e-02
   8.8931900e-01  -5.0227400e-01  -9.2828000e-02
   8.8932100e-01  -4.7981400e-01  -2.4419000e-02
   8.8933800e-01  -5.3316300e-01   3.1350000e-02
   8.8935200e-01  -4.9226400e-01  -4.9166000e-02
   8.8938800e-01  -5.2537800e-01   3.1227000e-02
   8.8939600e-01  -5.4986800e-01  -1.3351000e-01
   8.8941600e-01  -4.9482200e-01  -6.1566000e-02
   8.8942200e-01  -5.8839900e-01  -1.6918400e-01
   8.8942300e-01  -4.7989600e-01  -1.8315000e-02
   8.8943200e-01  -5.6633000e-01   3.8280000e-02
   8.8946200e-01  -5.3589600e-01   4.3969000e-02
   8.8949600e-01  -4.7995400e-01  -1.2210000e-02
   8.8952900e-01  -4.8990800e-01  -4.9117000e-02
   8.8953400e-01  -5.0498600e-01  -8.6741000e-02
   8.8956700e-01  -5.1779800e-01  -1.1242700e-01
   8.8957200e-01  -4.9244200e-01  -4.3024000e-02
   8.8958700e-01  -5.6378100e-01   4.4613000e-02
   8.8959200e-01  -5.1012500e-01  -1.7523600e-01
   8.8962000e-01  -5.6923000e-01   4.4742000e-02
   8.8962600e-01  -4.8749400e-01  -2.4517000e-02
   8.8963300e-01  -5.0253200e-01  -9.9095000e-02
   8.8964000e-01  -6.2278500e-01  -1.5890900e-01
   8.8965100e-01  -5.3606000e-01   3.7691000e-02
   8.8965300e-01  -5.3869600e-01   2.5155000e-02
   8.8968100e-01  -5.4718100e-01  -1.2694000e-01
   8.8969400e-01  -4.9504800e-01  -5.5416000e-02
   8.8972800e-01  -4.8757600e-01  -1.8388000e-02
   8.8972900e-01  -5.8033600e-01  -1.3569400e-01
   8.8973500e-01  -5.1024500e-01  -1.1829600e-01
   8.8974900e-01  -5.3878000e-01  -1.6489500e-01
   8.8975500e-01  -5.3615100e-01  -1.3261000e-01
   8.8978400e-01  -5.1798200e-01  -1.1876100e-01
   8.8980200e-01  -4.8763500e-01  -1.2259000e-02
   8.8980800e-01  -5.6940200e-01   3.8353000e-02
   8.8981100e-01  -5.3619900e-01   3.1411000e-02
   8.8981600e-01  -6.2587500e-01  -1.5247400e-01
   8.8982600e-01  -5.4730900e-01  -1.3338100e-01
   8.8984800e-01  -5.3098500e-01  -1.7068500e-01
   8.8987200e-01  -5.5862200e-01  -1.4063700e-01
   8.8988400e-01  -5.2840500e-01   3.1288000e-02
   8.8990700e-01  -5.4156000e-01  -1.3299600e-01
   8.8992600e-01  -4.9772300e-01  -1.7421000e-01
   8.8994300e-01  -4.9525100e-01  -4.9264000e-02
   8.9006100e-01  -6.0023300e-01   2.5989000e-02
   8.9007800e-01  -6.1166900e-01  -1.4467400e-01
   8.9008100e-01  -5.5047400e-01   3.7985000e-02
   8.9011000e-01  -5.1311700e-01  -1.7557800e-01
   8.9011100e-01  -5.4173900e-01   2.5204000e-02
   8.9012400e-01  -5.7793600e-01  -1.3556600e-01
   8.9012600e-01  -4.8292800e-01  -1.2235000e-02
   8.9012900e-01  -5.2861500e-01  -1.7052000e-01
   8.9024100e-01  -5.5061500e-01   3.1656000e-02
   8.9025100e-01  -4.7808700e-01  -2.4419000e-02
   8.9026700e-01  -5.9196200e-01  -1.3659300e-01
   8.9027800e-01  -5.1069800e-01  -1.1209600e-01
   8.9030400e-01  -5.2097300e-01  -1.1899400e-01
   8.9035300e-01  -4.7816800e-01  -1.8315000e-02
   8.9037000e-01  -5.1590100e-01   3.1104000e-02
   8.9038700e-01  -5.7266900e-01  -1.6791300e-01
   8.9039200e-01  -6.0624100e-01  -1.5758900e-01
   8.9040400e-01  -5.2624500e-01  -1.7035500e-01
   8.9040900e-01  -4.9061900e-01   1.2284000e-02
   8.9045000e-01  -5.9213400e-01  -1.6966000e-01
   8.9045300e-01  -4.9065400e-01  -6.1420000e-03
   8.9045300e-01  -4.9065400e-01   6.1420000e-03
   8.9046700e-01  -4.9066600e-01   0.0000000e+00
   8.9047100e-01  -5.5915800e-01   3.8169000e-02
   8.9050900e-01  -6.1208500e-01   1.9622000e-02
   8.9054200e-01  -5.7007000e-01  -1.3505200e-01
   8.9055900e-01  -5.9505000e-01  -1.3685000e-01
   8.9057000e-01  -4.9825000e-01   1.8499000e-02
   8.9057100e-01  -5.1607000e-01  -1.1242700e-01
   8.9059100e-01  -6.0073700e-01  -1.6379900e-01
   8.9063100e-01  -5.0589300e-01   2.4762000e-02
   8.9064000e-01  -5.2384800e-01   1.8738000e-02
   8.9064400e-01  -5.0590400e-01  -9.3104000e-02
   8.9068000e-01  -5.6205300e-01   4.4613000e-02
   8.9068500e-01  -4.9084200e-01  -7.3859000e-02
   8.9069500e-01  -5.7570200e-01   3.2086000e-02
   8.9070200e-01  -6.1227200e-01  -1.3813500e-01
   8.9075600e-01  -5.9523500e-01  -1.5670800e-01
   8.9079200e-01  -5.1112600e-01  -1.0589200e-01
   8.9080400e-01  -5.2398800e-01  -1.1922700e-01
   8.9080900e-01  -5.1370200e-01  -1.1231600e-01
   8.9081900e-01  -6.1526700e-01  -1.3171400e-01
   8.9083000e-01  -5.8413300e-01   3.8684000e-02
   8.9083100e-01  -5.1115900e-01   3.1043000e-02
   8.9084600e-01  -5.2143200e-01  -1.1275700e-01
   8.9086600e-01  -4.8600200e-01  -4.2938000e-02
   8.9089100e-01  -5.0103700e-01  -1.0537100e-01
   8.9094300e-01  -5.0361200e-01   1.8554000e-02
   8.9095300e-01  -5.5420000e-01   4.4441000e-02
   8.9098800e-01  -5.2414400e-01  -1.2559300e-01
   8.9098900e-01  -5.8428100e-01   3.2239000e-02
   8.9102300e-01  -4.9111500e-01  -6.7714000e-02
   8.9102900e-01  -6.2414600e-01  -1.5247400e-01
   8.9105100e-01  -4.8864100e-01  -3.0705000e-02
   8.9105500e-01  -5.3464700e-01  -1.7118000e-01
   8.9105700e-01  -4.8615500e-01  -3.6807000e-02
   8.9108100e-01  -6.1552000e-01  -1.5177000e-01
   8.9114100e-01  -5.5141300e-01  -1.6616600e-01
   8.9117500e-01  -4.8625000e-01  -5.5250000e-02
   8.9121800e-01  -4.8628500e-01  -3.0675000e-02
   8.9125300e-01  -5.4566300e-01  -1.6568900e-01
   8.9126900e-01  -5.0642200e-01   3.0982000e-02
   8.9127100e-01  -6.3024200e-01   6.6080000e-03
   8.9133900e-01  -6.1863200e-01  -1.6547900e-01
   8.9137600e-01  -5.9582000e-01  -1.4359800e-01
   8.9137600e-01  -5.3230000e-01  -1.6457700e-01
   8.9137600e-01  -5.0143500e-01  -9.9193000e-02
   8.9140400e-01  -4.8892400e-01  -6.1420000e-03
   8.9142200e-01  -4.9645500e-01   2.4664000e-02
   8.9142500e-01  -4.8645000e-01  -4.9117000e-02
   8.9144100e-01  -5.9588100e-01  -1.5022300e-01
   8.9145300e-01  -4.8647300e-01  -1.8407000e-02
   8.9147800e-01  -5.2716200e-01  -1.2583800e-01
   8.9148800e-01  -5.0915100e-01  -1.1841200e-01
   8.9152700e-01  -4.8653200e-01  -1.2272000e-02
   8.9155500e-01  -5.5742800e-01   3.8169000e-02
   8.9158100e-01  -6.4239400e-01  -1.0008900e-01
   8.9161200e-01  -5.0416300e-01   2.4762000e-02
   8.9172200e-01  -5.0679600e-01  -9.9487000e-02
   8.9172800e-01  -5.4607900e-01  -1.3351000e-01
   8.9173200e-01  -5.6300000e-01  -1.4117500e-01
   8.9173300e-01  -5.7390000e-01  -1.4198300e-01
   8.9176200e-01  -4.9673300e-01  -9.8997000e-02
   8.9178900e-01  -5.1452200e-01  -1.1876100e-01
   8.9182100e-01  -5.4058400e-01  -1.3956000e-01
   8.9184100e-01  -4.9428300e-01  -1.7421000e-01
   8.9186200e-01  -5.7401800e-01  -1.6165900e-01
   8.9189000e-01  -5.5207600e-01  -1.5982600e-01
   8.9191300e-01  -5.0187600e-01  -1.1176500e-01
   8.9196200e-01  -4.7697600e-01  -2.4443000e-02
   8.9200300e-01  -5.4632000e-01  -1.5936700e-01
   8.9200800e-01  -5.7690700e-01   3.8574000e-02
   8.9202300e-01  -6.0209700e-01  -1.5744200e-01
   8.9203400e-01  -4.9944700e-01  -9.2920000e-02
   8.9203500e-01  -5.5516200e-01  -1.4063700e-01
   8.9204800e-01  -4.9696500e-01  -1.0526700e-01
   8.9205300e-01  -4.9445500e-01  -7.4080000e-02
   8.9206100e-01  -5.2505700e-01   2.5032000e-02
   8.9206200e-01  -4.9446300e-01  -8.6484000e-02
   8.9207800e-01  -5.7697100e-01  -1.4225200e-01
   8.9207800e-01  -5.2767400e-01   4.3883000e-02
   8.9209600e-01  -5.0965600e-01  -1.7557800e-01
   8.9212000e-01  -5.3820200e-01  -1.3942600e-01
   8.9212200e-01  -6.3995800e-01  -9.9997000e-02
   8.9214700e-01  -5.3559000e-01  -1.2645000e-01
   8.9220200e-01  -5.3563800e-01   3.7764000e-02
   8.9220300e-01  -5.9100100e-01   3.8868000e-02
   8.9221900e-01  -4.9710400e-01  -9.2828000e-02
   8.9223900e-01  -4.9460600e-01  -1.0516300e-01
   8.9226800e-01  -5.2783700e-01   3.7617000e-02
   8.9228300e-01  -6.0519300e-01  -1.5773500e-01
   8.9232500e-01  -5.0729500e-01  -1.7540700e-01
   8.9233100e-01  -5.9112100e-01  -1.6318700e-01
   8.9235100e-01  -4.8719300e-01  -6.1420000e-03
   8.9235100e-01  -4.8719300e-01   6.1420000e-03
   8.9235600e-01  -5.7999200e-01   3.8648000e-02
   8.9236600e-01  -4.8720400e-01   0.0000000e+00
   8.9237700e-01  -5.4106800e-01   3.7875000e-02
   8.9240900e-01  -4.9474400e-01  -9.2736000e-02
   8.9244700e-01  -4.8976400e-01  -3.6918000e-02
   8.9245400e-01  -4.8727500e-01  -6.1505000e-02
   8.9246000e-01  -4.9478500e-01  -8.0320000e-02
   8.9246900e-01  -4.7984400e-01  -3.0613000e-02
   8.9250600e-01  -6.0826500e-01  -1.5134800e-01
   8.9253700e-01  -5.7463500e-01  -1.4867600e-01
   8.9253700e-01  -5.4120800e-01   3.1564000e-02
   8.9258000e-01  -5.7467400e-01  -1.5524100e-01
   8.9259300e-01  -5.6377500e-01  -1.6743600e-01
   8.9263500e-01  -5.9418600e-01  -1.6349300e-01
   8.9265200e-01  -5.2556000e-01  -1.3222500e-01
   8.9270100e-01  -4.9498000e-01  -6.1750000e-02
   8.9272300e-01  -5.4695300e-01  -1.5304000e-01
   8.9272300e-01  -5.1017700e-01   2.4860000e-02
   8.9272500e-01  -4.9500000e-01  -9.8997000e-02
   8.9275800e-01  -5.3086900e-01   3.7691000e-02
   8.9276100e-01  -6.2001500e-01  -1.5905600e-01
   8.9277800e-01  -4.8008900e-01  -1.2247000e-02
   8.9282100e-01  -4.9006500e-01  -8.0161000e-02
   8.9282200e-01  -4.8012400e-01  -6.1240000e-03
   8.9285600e-01  -6.4666700e-01  -9.3691000e-02
   8.9288400e-01  -5.5295600e-01   4.4484000e-02
   8.9291700e-01  -4.9014300e-01   1.2308000e-02
   8.9292300e-01  -4.8765100e-01  -6.7714000e-02
   8.9296200e-01  -4.9017800e-01   6.1540000e-03
   8.9297600e-01  -4.9019000e-01   0.0000000e+00
   8.9298000e-01  -4.9520700e-01  -5.5582000e-02
   8.9299000e-01  -5.4425600e-01   3.1626000e-02
   8.9303400e-01  -4.9023700e-01  -4.3110000e-02
   8.9309000e-01  -4.8033600e-01  -3.6770000e-02
   8.9316200e-01  -6.0889400e-01  -1.4480900e-01
   8.9317200e-01  -5.5887300e-01  -1.4104100e-01
   8.9319000e-01  -4.9036200e-01  -7.4006000e-02
   8.9326000e-01  -5.8082500e-01  -1.6242300e-01
   8.9329500e-01  -4.8545900e-01  -6.1420000e-03
   8.9336200e-01  -4.8800300e-01  -7.3932000e-02
   8.9343600e-01  -5.2883500e-01  -1.6457700e-01
   8.9347300e-01  -5.6729200e-01  -1.3518000e-01
   8.9353600e-01  -5.0829700e-01  -1.0599600e-01
   8.9355400e-01  -6.0355200e-01   3.2638000e-02
   8.9357900e-01  -5.7283500e-01  -1.4211700e-01
   8.9358100e-01  -5.4477300e-01   3.7985000e-02
   8.9362700e-01  -6.1798800e-01   1.9732000e-02
   8.9367800e-01  -5.2643200e-01  -1.7085000e-01
   8.9368500e-01  -4.9326600e-01  -9.8997000e-02
   8.9368600e-01  -6.0653100e-01  -1.5134800e-01
   8.9369900e-01  -6.1516400e-01  -1.5205200e-01
   8.9370100e-01  -5.6205400e-01  -1.6089500e-01
   8.9370900e-01  -5.2385800e-01   3.1319000e-02
   8.9371000e-01  -5.9802100e-01   3.2546000e-02
   8.9372200e-01  -4.8829100e-01  -9.2552000e-02
   8.9372400e-01  -6.0086900e-01  -1.3762100e-01
   8.9373600e-01  -5.1358200e-01  -1.2522600e-01
   8.9375400e-01  -5.0592900e-01  -1.0589200e-01
   8.9377700e-01  -5.3963900e-01  -1.6553000e-01
   8.9379000e-01  -6.0949400e-01  -1.3826400e-01
   8.9379900e-01  -5.5081200e-01  -1.6648300e-01
   8.9384600e-01  -6.3870500e-01  -1.1349300e-01
   8.9386000e-01  -4.7847400e-01  -6.1321000e-02
   8.9386600e-01  -5.4502100e-01  -1.7249900e-01
   8.9387000e-01  -6.1822300e-01  -1.4561600e-01
   8.9390900e-01  -6.0104500e-01  -1.6425700e-01
   8.9394600e-01  -5.2405800e-01  -1.7068500e-01
   8.9396100e-01  -5.5391000e-01  -1.4077100e-01
   8.9399300e-01  -6.0396900e-01  -1.3787800e-01
   8.9399900e-01  -6.0112900e-01   3.2607000e-02
   8.9402100e-01  -4.7860100e-01  -3.6770000e-02
   8.9404000e-01  -4.9606700e-01   1.8536000e-02
   8.9406400e-01  -5.5104500e-01   4.4484000e-02
   8.9408600e-01  -5.3463200e-01  -1.3299600e-01
   8.9411300e-01  -4.9612600e-01   1.2357000e-02
   8.9411900e-01  -4.9111000e-01  -5.5526000e-02
   8.9412900e-01  -5.1134500e-01   3.1135000e-02
   8.9414100e-01  -4.7869500e-01  -5.5195000e-02
   8.9414200e-01  -4.9363600e-01  -9.2828000e-02
   8.9414400e-01  -6.0411300e-01  -1.5120800e-01
   8.9415000e-01  -4.8863500e-01  -8.6398000e-02
   8.9415000e-01  -4.8614200e-01  -4.3067000e-02
   8.9415300e-01  -4.7626600e-01  -3.6734000e-02
   8.9415600e-01  -6.2137200e-01  -1.5261400e-01
   8.9417800e-01  -4.8616400e-01  -6.1566000e-02
   8.9420400e-01  -5.3473400e-01  -1.3942600e-01
   8.9422200e-01  -6.0990800e-01   2.6210000e-02
   8.9423600e-01  -4.8372400e-01  -6.1420000e-03
   8.9427700e-01  -5.9855600e-01   3.9089000e-02
   8.9430600e-01  -4.9126000e-01  -6.7916000e-02
   8.9431500e-01  -4.7639400e-01  -3.0613000e-02
   8.9434300e-01  -6.0715800e-01  -1.4480900e-01
   8.9434600e-01  -5.5992100e-01   4.4699000e-02
   8.9436900e-01  -4.9131100e-01  -4.9362000e-02
   8.9437400e-01  -5.3488000e-01  -1.5875600e-01
   8.9439200e-01  -4.7889400e-01  -4.9068000e-02
   8.9440000e-01  -5.5726500e-01  -1.6059000e-01
   8.9442100e-01  -5.6270000e-01  -1.5450700e-01
   8.9443900e-01  -5.0395000e-01  -1.1841200e-01
   8.9444800e-01  -4.7649800e-01  -2.4492000e-02
   8.9445900e-01  -4.8638800e-01  -5.5416000e-02
   8.9449800e-01  -6.1883100e-01  -1.3903500e-01
   8.9450000e-01  -5.4557600e-01  -1.4023300e-01
   8.9454500e-01  -5.7923500e-01   5.1619000e-02
   8.9454700e-01  -5.3766400e-01  -1.3325300e-01
   8.9454900e-01  -4.8895400e-01  -8.0240000e-02
   8.9455200e-01  -5.0913800e-01  -1.1242700e-01
   8.9455200e-01  -4.7658000e-01  -1.8370000e-02
   8.9456500e-01  -5.0659700e-01   3.1074000e-02
   8.9457100e-01  -4.9398200e-01  -8.6655000e-02
   8.9461400e-01  -4.7906800e-01  -4.2938000e-02
   8.9461600e-01  -4.9151000e-01  -6.1750000e-02
   8.9462700e-01  -6.0172400e-01  -1.5773500e-01
   8.9464800e-01  -5.4570500e-01  -1.6616600e-01
   8.9464800e-01  -4.8653900e-01  -6.7781000e-02
   8.9469800e-01  -5.9612400e-01  -1.4400100e-01
   8.9471000e-01  -4.8658800e-01  -4.9264000e-02
   8.9474500e-01  -4.9412200e-01  -1.0537100e-01
   8.9476400e-01  -5.7943500e-01   4.5171000e-02
   8.9477100e-01  -5.0931900e-01  -1.1876100e-01
   8.9480200e-01  -6.0473800e-01  -1.4467400e-01
   8.9481000e-01  -4.9669200e-01  -1.1176500e-01
   8.9481600e-01  -5.7121400e-01  -1.6181200e-01
   8.9481800e-01  -5.9063700e-01  -1.4359800e-01
   8.9482300e-01  -5.3790300e-01  -1.6553000e-01
   8.9483100e-01  -5.5468100e-01  -1.5392000e-01
   8.9485800e-01  -4.8670700e-01   6.1540000e-03
   8.9487200e-01  -5.6039000e-01   5.1129000e-02
   8.9487300e-01  -4.8671900e-01   0.0000000e+00
   8.9489700e-01  -5.8511600e-01   3.8832000e-02
   8.9489800e-01  -4.9424600e-01   2.4713000e-02
   8.9497000e-01  -4.9430400e-01  -8.0479000e-02
   8.9497100e-01  -6.0775800e-01  -1.3826400e-01
   8.9500100e-01  -4.9433000e-01   1.8536000e-02
   8.9503300e-01  -5.8524200e-01  -1.6303500e-01
   8.9509700e-01  -6.2813300e-01   1.3241000e-02
   8.9509800e-01  -5.3550300e-01  -1.5245300e-01
   8.9509900e-01  -4.9189900e-01  -9.2828000e-02
   8.9511300e-01  -5.6331900e-01  -1.4811300e-01
   8.9512200e-01  -5.5790700e-01  -1.5421400e-01
   8.9516400e-01  -5.7152900e-01   4.4999000e-02
   8.9517400e-01  -5.0709900e-01   3.7323000e-02
   8.9517800e-01  -5.6883300e-01  -1.6165900e-01
   8.9527400e-01  -6.0804600e-01   3.2761000e-02
   8.9532800e-01  -6.2251200e-01  -1.3269300e-01
   8.9540100e-01  -5.4636300e-01  -1.5982600e-01
   8.9540600e-01  -5.3313900e-01  -1.6521200e-01
   8.9545900e-01  -5.1759500e-01  -1.7035500e-01
   8.9549500e-01  -5.1248000e-01  -1.2534900e-01
   8.9552400e-01  -5.5529400e-01  -1.4755000e-01
   8.9552800e-01  -5.6097600e-01  -1.6104800e-01
   8.9552800e-01  -4.9224400e-01  -8.6655000e-02
   8.9553700e-01  -5.7186800e-01  -1.5538800e-01
   8.9553900e-01  -5.0740000e-01  -1.1242700e-01
   8.9556500e-01  -5.4944800e-01  -1.4063700e-01
   8.9557200e-01  -5.3855000e-01   5.0589000e-02
   8.9559300e-01  -4.8979200e-01  -9.8997000e-02
   8.9559900e-01  -6.2569600e-01   1.3229000e-02
   8.9560800e-01  -4.9986500e-01  -1.1829600e-01
   8.9575300e-01  -4.7996700e-01  -3.0705000e-02
   8.9578100e-01  -5.1786500e-01  -1.2571600e-01
   8.9578400e-01  -5.6938000e-01  -1.4211700e-01
   8.9579200e-01  -5.3610100e-01  -1.4614400e-01
   8.9580200e-01  -6.2589400e-01  -1.5993600e-01
   8.9580200e-01  -4.8496800e-01   6.1540000e-03
   8.9581400e-01  -5.5852300e-01  -1.4783200e-01
   8.9581700e-01  -4.8498000e-01   0.0000000e+00
   8.9588700e-01  -5.7769700e-01   4.5171000e-02
   8.9589800e-01  -5.7494600e-01  -1.6227100e-01
   8.9590000e-01  -5.6948400e-01  -1.5524100e-01
   8.9593700e-01  -5.9449500e-01  -1.5729500e-01
   8.9597400e-01  -6.0299900e-01  -1.4467400e-01
   8.9599000e-01  -4.8015400e-01  -1.8425000e-02
   8.9606800e-01  -5.8899600e-01  -1.6349300e-01
   8.9612400e-01  -5.4699600e-01  -1.5348000e-01
   8.9613700e-01  -5.2074900e-01   4.3883000e-02
   8.9615600e-01  -5.0031100e-01  -1.1209600e-01
   8.9622900e-01  -5.7249500e-01  -1.4895700e-01
   8.9623300e-01  -5.6432400e-01   4.4870000e-02
   8.9625000e-01  -5.6162100e-01  -1.5465400e-01
   8.9627300e-01  -5.1312600e-01   3.7470000e-02
   8.9631700e-01  -4.7796700e-01  -4.2981000e-02
   8.9647900e-01  -4.7809400e-01  -7.3785000e-02
   8.9650400e-01  -5.8103200e-01   5.8231000e-02
   8.9655200e-01  -5.0063400e-01   3.7249000e-02
   8.9659200e-01  -5.7011000e-01  -1.4881600e-01
   8.9661900e-01  -5.7560300e-01  -1.5582800e-01
   8.9662700e-01  -5.9514000e-01  -1.5078600e-01
   8.9664600e-01  -4.8813400e-01  -7.4153000e-02
   8.9668300e-01  -4.8070100e-01  -6.7714000e-02
   8.9670500e-01  -5.5931600e-01   5.1178000e-02
   8.9671500e-01  -5.0076600e-01   3.1043000e-02
   8.9674000e-01  -6.2388500e-01   1.9842000e-02
   8.9681900e-01  -5.4760300e-01  -1.4712900e-01
   8.9682000e-01  -4.7836200e-01  -6.7646000e-02
   8.9687100e-01  -5.2136600e-01  -1.1969200e-01
   8.9691400e-01  -4.9085000e-01   1.8536000e-02
   8.9694300e-01  -5.6224000e-01  -1.4825400e-01
   8.9697100e-01  -5.0348300e-01  -9.9781000e-02
   8.9698400e-01  -4.7849100e-01  -1.2284000e-02
   8.9698800e-01  -4.9091000e-01   1.2357000e-02
   8.9699100e-01  -5.0099100e-01  -1.7557800e-01
   8.9701600e-01  -5.6775400e-01  -1.6181200e-01
   8.9702700e-01  -5.3190100e-01  -1.3956000e-01
   8.9713200e-01  -4.7860700e-01  -6.1505000e-02
   8.9713400e-01  -5.5082600e-01  -1.4741000e-01
   8.9713600e-01  -4.8105800e-01  -8.6312000e-02
   8.9714400e-01  -5.6787000e-01   5.1423000e-02
   8.9715300e-01  -4.8604300e-01  -6.7916000e-02
   8.9716900e-01  -5.2678900e-01   4.4055000e-02
   8.9722100e-01  -4.8609700e-01  -8.0320000e-02
   8.9725200e-01  -5.0371300e-01  -1.0610000e-01
   8.9728800e-01  -5.9575900e-01  -1.4427100e-01
   8.9730300e-01  -5.2951600e-01  -1.3942600e-01
   8.9731200e-01  -5.7623400e-01  -1.4937900e-01
   8.9736100e-01  -5.2695100e-01   3.7764000e-02
   8.9738100e-01  -5.3483200e-01  -1.3338100e-01
   8.9741400e-01  -4.7882900e-01  -5.5361000e-02
   8.9741500e-01  -5.2442100e-01   4.4012000e-02
   8.9743300e-01  -4.9126600e-01  -1.0547500e-01
   8.9747200e-01  -6.0441700e-01  -1.5163000e-01
   8.9750200e-01  -5.0391800e-01  -1.1242700e-01
   8.9751700e-01  -4.9384500e-01   1.8572000e-02
   8.9753700e-01  -4.8137500e-01  -8.0161000e-02
   8.9758300e-01  -4.2565800e-01  -1.7576500e-01
   8.9759200e-01  -4.8639200e-01  -7.4153000e-02
   8.9763400e-01  -4.8145100e-01  -1.2308000e-02
   8.9765500e-01  -5.7378800e-01   5.8065000e-02
   8.9766400e-01  -5.3244400e-01  -1.3325300e-01
   8.9766600e-01  -4.7902700e-01  -4.9215000e-02
   8.9767800e-01  -4.8148600e-01  -6.1540000e-03
   8.9769300e-01  -4.8149800e-01   0.0000000e+00
   8.9773900e-01  -5.6840500e-01  -1.5538800e-01
   8.9776200e-01  -4.8902500e-01   2.4713000e-02
   8.9778500e-01  -5.3781600e-01   3.7985000e-02
   8.9781500e-01  -4.7914400e-01  -6.1480000e-03
   8.9783400e-01  -4.8908300e-01  -8.0479000e-02
   8.9783700e-01  -4.7669100e-01  -1.8425000e-02
   8.9786600e-01  -4.8910800e-01   1.8536000e-02
   8.9790400e-01  -5.7401400e-01   5.1619000e-02
   8.9790600e-01  -6.2794900e-01  -1.5359900e-01
   8.9790600e-01  -4.8415000e-01  -5.5526000e-02
   8.9790800e-01  -4.8166800e-01  -7.4006000e-02
   8.9791100e-01  -4.7674900e-01  -1.2284000e-02
   8.9794000e-01  -4.8916700e-01   1.2357000e-02
   8.9795600e-01  -4.7678300e-01  -6.1420000e-03
   8.9796300e-01  -5.9075500e-01   4.5557000e-02
   8.9796500e-01  -5.2488500e-01  -1.7134500e-01
   8.9799800e-01  -5.0687100e-01   2.4934000e-02
   8.9799800e-01  -4.8671500e-01  -4.9411000e-02
   8.9802000e-01  -5.3012600e-01   3.1534000e-02
   8.9808100e-01  -6.1649300e-01   2.6382000e-02
   8.9809200e-01  -4.9682700e-01  -1.1209600e-01
   8.9815800e-01  -4.8435000e-01  -4.9362000e-02
   8.9820600e-01  -5.0449400e-01   2.4909000e-02
   8.9821100e-01  -5.2767200e-01  -1.3299600e-01
   8.9821200e-01  -4.8938400e-01  -8.6741000e-02
   8.9824500e-01  -4.8691200e-01  -6.1811000e-02
   8.9833000e-01  -5.2777300e-01  -1.3942600e-01
   8.9837500e-01  -5.8833200e-01   4.5515000e-02
   8.9837800e-01  -6.2840900e-01  -1.3342800e-01
   8.9838000e-01  -4.8701900e-01  -8.6655000e-02
   8.9839900e-01  -5.9960000e-01  -1.5802900e-01
   8.9842800e-01  -5.3047200e-01   4.4183000e-02
   8.9843300e-01  -5.6903000e-01  -1.4895700e-01
   8.9847200e-01  -5.2789300e-01   5.0442000e-02
   8.9851700e-01  -4.9464900e-01  -9.9487000e-02
   8.9852300e-01  -4.7476100e-01  -3.0705000e-02
   8.9852700e-01  -4.8713600e-01  -5.5637000e-02
   8.9854300e-01  -4.8465500e-01  -8.6569000e-02
   8.9857300e-01  -5.2279700e-01  -1.2632800e-01
   8.9859400e-01  -4.7728300e-01  -4.9215000e-02
   8.9861500e-01  -4.6991900e-01  -3.6770000e-02
   8.9861700e-01  -5.8019200e-01   5.1815000e-02
   8.9861900e-01  -5.3063500e-01   3.7875000e-02
   8.9877900e-01  -4.7004500e-01  -3.0644000e-02
   8.9878300e-01  -5.1263800e-01  -1.2571600e-01
   8.9881900e-01  -5.2818700e-01  -1.2669500e-01
   8.9887100e-01  -5.2045200e-01   3.7691000e-02
   8.9891300e-01  -4.7014900e-01  -2.4517000e-02
   8.9894500e-01  -4.8497300e-01  -8.0400000e-02
   8.9896300e-01  -5.9168400e-01  -1.5744200e-01
   8.9896700e-01  -5.3093100e-01   5.0540000e-02
   8.9898300e-01  -5.2314100e-01  -1.7134500e-01
   8.9898900e-01  -4.7020800e-01  -4.9068000e-02
   8.9900200e-01  -5.3622100e-01  -1.4009900e-01
   8.9900400e-01  -5.7228900e-01   5.1619000e-02
   8.9901100e-01  -5.1026100e-01  -1.2559300e-01
   8.9904700e-01  -4.8754900e-01  -9.9193000e-02
   8.9908900e-01  -5.5547600e-01   5.1178000e-02
   8.9909100e-01  -6.0025000e-01  -1.5148900e-01
   8.9914800e-01  -4.7524800e-01  -3.6881000e-02
   8.9917300e-01  -5.5261600e-01   3.8316000e-02
   8.9921100e-01  -4.8518400e-01  -9.9095000e-02
   8.9921200e-01  -4.7038000e-01  -4.2938000e-02
   8.9924800e-01  -4.8272500e-01   6.1670000e-03
   8.9926000e-01  -5.0535600e-01  -1.1899400e-01
   8.9926600e-01  -4.7534000e-01  -5.5361000e-02
   8.9929100e-01  -5.1049300e-01  -1.3834900e-01
   8.9931000e-01  -5.9765100e-01   4.5772000e-02
   8.9931700e-01  -4.8526800e-01  -7.4227000e-02
   8.9945400e-01  -5.3397300e-01   5.0638000e-02
   8.9945800e-01  -4.7549000e-01  -6.7714000e-02
   8.9948400e-01  -5.8376600e-01  -1.6349300e-01
   8.9950000e-01  -5.4727100e-01   5.0981000e-02
   8.9950800e-01  -4.8791600e-01  -9.3012000e-02
   8.9951900e-01  -4.7553700e-01  -4.9215000e-02
   8.9954600e-01  -4.7802800e-01   0.0000000e+00
   8.9957800e-01  -5.1329600e-01   3.7580000e-02
   8.9959000e-01  -5.1073900e-01  -1.1934300e-01
   8.9959100e-01  -4.7313000e-01  -6.7646000e-02
   8.9962400e-01  -4.7561900e-01  -1.2296000e-02
   8.9963100e-01  -4.7809500e-01  -6.1627000e-02
   8.9965700e-01  -5.9232700e-01  -1.5092600e-01
   8.9965900e-01  -4.8553900e-01  -6.8051000e-02
   8.9967300e-01  -4.8555000e-01  -9.2920000e-02
   8.9970200e-01  -5.1339900e-01  -1.3222500e-01
   8.9972600e-01  -5.3157600e-01  -1.6568900e-01
   8.9973800e-01  -5.9522200e-01   4.5729000e-02
   8.9974300e-01  -4.7571100e-01  -4.3067000e-02
   8.9974900e-01  -4.6346300e-01  -3.6697000e-02
   8.9977100e-01  -4.7573300e-01  -6.1566000e-02
   8.9977300e-01  -5.2380500e-01  -1.6505400e-01
   8.9980800e-01  -4.7084100e-01  -1.8407000e-02
   8.9983300e-01  -4.8318600e-01  -9.2828000e-02
   8.9985400e-01  -6.3279700e-01  -1.2713600e-01
   8.9987700e-01  -4.8571200e-01   6.1790000e-03
   8.9988000e-01  -5.1870600e-01   3.7691000e-02
   8.9989200e-01  -4.8572400e-01   0.0000000e+00
   8.9990200e-01  -4.7583600e-01  -7.3932000e-02
   8.9990400e-01  -4.7337300e-01  -6.1505000e-02
   8.9991300e-01  -4.6358800e-01  -3.0583000e-02
   8.9991400e-01  -4.7831600e-01  -5.5471000e-02
   8.9992400e-01  -5.1615900e-01   4.3926000e-02
   8.9992900e-01  -5.9540000e-01   3.9200000e-02
   8.9993200e-01  -5.1102000e-01  -1.3209600e-01
   8.9994000e-01  -5.5033100e-01   5.1079000e-02
   8.9997100e-01  -4.8578600e-01  -6.1873000e-02
   8.9998600e-01  -5.1879400e-01  -1.3261000e-01
   9.0002700e-01  -4.8088200e-01  -8.0320000e-02
   9.0004700e-01  -4.6369100e-01  -2.4468000e-02
   9.0010400e-01  -4.7846500e-01  -6.7849000e-02
   9.0011100e-01  -5.8993700e-01  -1.5744200e-01
   9.0011500e-01  -4.9090400e-01  -9.3196000e-02
   9.0015200e-01  -4.6377000e-01  -1.8352000e-02
   9.0015300e-01  -5.3720800e-01   4.4398000e-02
   9.0018600e-01  -5.4786900e-01  -1.6059000e-01
   9.0018800e-01  -4.8100900e-01   0.0000000e+00
   9.0020800e-01  -5.8443100e-01  -1.5700200e-01
   9.0021100e-01  -5.2157400e-01   4.4055000e-02
   9.0022900e-01  -5.1641200e-01  -1.3248200e-01
   9.0025000e-01  -5.8726400e-01   4.5557000e-02
   9.0025000e-01  -5.1901400e-01  -1.7118000e-01
   9.0032100e-01  -5.9294400e-01  -1.4440500e-01
   9.0035100e-01  -5.1651400e-01  -1.3888700e-01
   9.0037900e-01  -4.8860800e-01   1.8572000e-02
   9.0044100e-01  -4.7379000e-01  -4.9215000e-02
   9.0045300e-01  -4.8866700e-01   1.2382000e-02
   9.0045500e-01  -5.1918500e-01   4.4012000e-02
   9.0045700e-01  -4.7626900e-01  -6.1540000e-03
   9.0047200e-01  -4.7628000e-01   0.0000000e+00
   9.0048100e-01  -5.5670400e-01  -1.6135400e-01
   9.0048300e-01  -5.5376600e-01   4.4785000e-02
   9.0049500e-01  -6.2753800e-01  -1.4709700e-01
   9.0049800e-01  -5.2181400e-01  -1.3286700e-01
   9.0050200e-01  -5.4547200e-01  -1.6043700e-01
   9.0054200e-01  -4.8623800e-01   1.8554000e-02
   9.0054700e-01  -4.7881100e-01  -7.4080000e-02
   9.0055600e-01  -4.7881900e-01  -8.6484000e-02
   9.0061600e-01  -4.8629700e-01   1.2370000e-02
   9.0061800e-01  -5.2191400e-01  -1.3929100e-01
   9.0066300e-01  -5.3764500e-01  -1.5982600e-01
   9.0066500e-01  -4.7396400e-01  -4.3067000e-02
   9.0071700e-01  -4.9138400e-01  -1.0578800e-01
   9.0080500e-01  -5.9058000e-01  -1.5092600e-01
   9.0082500e-01  -6.4865500e-01  -1.0791700e-01
   9.0085800e-01  -4.7411400e-01  -3.6918000e-02
   9.0089000e-01  -5.6004600e-01   5.1374000e-02
   9.0090300e-01  -5.8506900e-01  -1.5050400e-01
   9.0091500e-01  -5.4850300e-01  -1.5421400e-01
   9.0093200e-01  -5.6307500e-01   5.7900000e-02
   9.0095500e-01  -5.0929900e-01   3.1288000e-02
   9.0095900e-01  -4.7913400e-01  -8.0320000e-02
   9.0097400e-01  -5.1188000e-01  -1.7068500e-01
   9.0101300e-01  -5.5423100e-01   5.1227000e-02
   9.0102200e-01  -4.7424100e-01  -3.0767000e-02
   9.0105700e-01  -4.8914800e-01   2.4787000e-02
   9.0109600e-01  -6.0784800e-01   3.9494000e-02
   9.0112800e-01  -6.2815300e-01  -1.4044800e-01
   9.0115700e-01  -4.7434600e-01  -2.4615000e-02
   9.0115900e-01  -5.4071900e-01   5.0883000e-02
   9.0120900e-01  -5.5734600e-01  -1.5494700e-01
   9.0122000e-01  -5.6879400e-01   5.1619000e-02
   9.0123100e-01  -5.4610500e-01  -1.5406700e-01
   9.0125400e-01  -5.8818800e-01  -1.5744200e-01
   9.0125600e-01  -5.1726500e-01  -1.7118000e-01
   9.0126100e-01  -4.7442700e-01  -1.8462000e-02
   9.0135200e-01  -5.1476400e-01  -1.3888700e-01
   9.0137100e-01  -5.0964000e-01   4.3840000e-02
   9.0139300e-01  -5.3827100e-01  -1.5348000e-01
   9.0142200e-01  -4.6963300e-01  -6.7646000e-02
   9.0144800e-01  -5.3831800e-01   5.0834000e-02
   9.0147000e-01  -5.9119500e-01  -1.4440500e-01
   9.0149900e-01  -5.1488600e-01  -1.7101500e-01
   9.0154500e-01  -5.2269100e-01  -1.6521200e-01
   9.0155700e-01  -6.5543000e-01  -1.0155900e-01
   9.0156400e-01  -5.0979900e-01   3.7580000e-02
   9.0156600e-01  -4.9457900e-01  -1.1231600e-01
   9.0156700e-01  -5.0217300e-01   3.1196000e-02
   9.0160000e-01  -4.9713000e-01  -1.1876100e-01
   9.0161400e-01  -5.4911200e-01  -1.4783200e-01
   9.0162400e-01  -4.9462600e-01  -1.7574900e-01
   9.0162900e-01  -5.2016500e-01  -1.3929100e-01
   9.0166900e-01  -4.8963400e-01  -1.0578800e-01
   9.0170000e-01  -5.0228100e-01   2.4958000e-02
   9.0171400e-01  -4.8467000e-01  -9.9291000e-02
   9.0173600e-01  -4.6987500e-01  -6.1505000e-02
   9.0174600e-01  -4.8223300e-01   6.1790000e-03
   9.0176000e-01  -5.2547600e-01  -1.3325300e-01
   9.0176300e-01  -4.9979300e-01   3.1166000e-02
   9.0177200e-01  -5.2809800e-01  -1.6568900e-01
   9.0180000e-01  -5.2030700e-01  -1.6505400e-01
   9.0181300e-01  -4.9225900e-01  -1.7557800e-01
   9.0183600e-01  -4.7734300e-01  -9.2736000e-02
   9.0189300e-01  -4.7986500e-01   6.1730000e-03
   9.0189500e-01  -4.7245500e-01  -5.5416000e-02
   9.0190100e-01  -4.9737300e-01  -1.0620400e-01
   9.0190900e-01  -5.0752200e-01  -1.3209600e-01
   9.0192000e-01  -5.1009100e-01   5.0147000e-02
   9.0193000e-01  -5.4671100e-01  -1.4769100e-01
   9.0194200e-01  -5.0754800e-01   3.1288000e-02
   9.0195000e-01  -5.8882900e-01  -1.5092600e-01
   9.0195800e-01  -5.8046300e-01   5.1963000e-02
   9.0196500e-01  -5.1785500e-01  -1.4558100e-01
   9.0196700e-01  -5.1012900e-01  -1.7068500e-01
   9.0197600e-01  -5.0250500e-01  -1.1911000e-01
   9.0199100e-01  -5.3350300e-01  -1.5967300e-01
   9.0204600e-01  -5.2571600e-01  -1.5906200e-01
   9.0208400e-01  -6.0591700e-01   4.6073000e-02
   9.0209300e-01  -5.3887100e-01  -1.4712900e-01
   9.0212500e-01  -4.7509800e-01  -1.2321000e-02
   9.0215200e-01  -5.9747200e-01  -1.6502100e-01
   9.0215300e-01  -4.9757500e-01  -1.1253700e-01
   9.0227000e-01  -4.7768200e-01  -8.6569000e-02
   9.0234400e-01  -4.8516700e-01   1.2382000e-02
   9.0240000e-01  -4.7531100e-01  -7.4080000e-02
   9.0245200e-01  -6.5028200e-01  -1.1495000e-01
   9.0245900e-01  -5.7541000e-01   5.8341000e-02
   9.0248800e-01  -4.8281600e-01   1.2370000e-02
   9.0252200e-01  -5.0802200e-01  -1.2583800e-01
   9.0255400e-01  -4.7543000e-01  -5.5526000e-02
   9.0256300e-01  -5.2094300e-01  -1.5875600e-01
   9.0261000e-01  -4.6564900e-01  -1.2272000e-02
   9.0261700e-01  -5.8944300e-01  -1.4440500e-01
   9.0263600e-01  -4.8044600e-01   1.2357000e-02
   9.0265500e-01  -4.6568300e-01  -6.1360000e-03
   9.0265800e-01  -4.7058600e-01  -7.3932000e-02
   9.0267000e-01  -4.6569400e-01   0.0000000e+00
   9.0267400e-01  -4.7799700e-01  -8.0400000e-02
   9.0270200e-01  -4.9045600e-01  -1.1220600e-01
   9.0272200e-01  -6.0366000e-01   3.9457000e-02
   9.0272300e-01  -5.3412500e-01  -1.5333300e-01
   9.0277800e-01  -5.2633200e-01  -1.5274600e-01
   9.0278300e-01  -4.8551300e-01  -1.0568300e-01
   9.0281100e-01  -4.7070300e-01  -5.5416000e-02
   9.0282300e-01  -4.7811300e-01   6.1730000e-03
   9.0286500e-01  -5.2902100e-01  -1.2718500e-01
   9.0287800e-01  -5.9814900e-01  -1.5846900e-01
   9.0288200e-01  -5.6181000e-01   5.7955000e-02
   9.0291100e-01  -5.4489100e-01  -1.4117500e-01
   9.0295500e-01  -5.0329900e-01   3.7507000e-02
   9.0296000e-01  -4.7574600e-01  -6.1670000e-03
   9.0297500e-01  -4.7575700e-01   0.0000000e+00
   9.0299900e-01  -5.3700000e-01   5.7237000e-02
   9.0301200e-01  -5.2914500e-01  -1.3363800e-01
   9.0301300e-01  -5.5598700e-01   5.7789000e-02
   9.0306500e-01  -4.7089900e-01  -4.9264000e-02
   9.0311100e-01  -4.6848000e-01  -2.4590000e-02
   9.0315400e-01  -5.0091700e-01   3.7470000e-02
   9.0320600e-01  -5.1371800e-01  -1.4544100e-01
   9.0321600e-01  -4.6856000e-01  -1.8444000e-02
   9.0326000e-01  -4.8093500e-01  -9.3012000e-02
   9.0328900e-01  -5.2937900e-01  -1.5952000e-01
   9.0329000e-01  -4.7107200e-01  -4.3110000e-02
   9.0329600e-01  -5.2155500e-01  -1.5245300e-01
   9.0330100e-01  -5.2155900e-01   5.0491000e-02
   9.0339500e-01  -5.2685000e-01  -1.3996400e-01
   9.0342500e-01  -5.3472200e-01  -1.4698800e-01
   9.0346400e-01  -5.1393100e-01   4.4012000e-02
   9.0348100e-01  -5.2692200e-01  -1.4642500e-01
   9.0348500e-01  -4.7122200e-01  -3.6954000e-02
   9.0351000e-01  -4.9866800e-01   3.1196000e-02
   9.0352300e-01  -6.6042200e-01  -9.5149000e-02
   9.0353600e-01  -6.1303800e-01   3.9678000e-02
   9.0354200e-01  -4.8364400e-01  -8.6913000e-02
   9.0356800e-01  -5.1918600e-01  -1.6521200e-01
   9.0357500e-01  -5.9879800e-01  -1.5191100e-01
   9.0357900e-01  -4.8118500e-01  -9.9291000e-02
   9.0364900e-01  -4.7134900e-01  -3.0798000e-02
   9.0370300e-01  -4.9125200e-01  -1.1864500e-01
   9.0370600e-01  -5.0390800e-01  -1.2571600e-01
   9.0371900e-01  -5.0900100e-01  -1.7085000e-01
   9.0377900e-01  -6.5463200e-01  -1.0850500e-01
   9.0378400e-01  -4.7145300e-01  -2.4639000e-02
   9.0380300e-01  -5.4566100e-01  -1.6089500e-01
   9.0382300e-01  -5.2459800e-01  -1.5921500e-01
   9.0383500e-01  -5.1166300e-01  -1.2620500e-01
   9.0383700e-01  -4.7395700e-01  -1.2333000e-02
   9.0387700e-01  -4.9390800e-01   3.1135000e-02
   9.0388900e-01  -4.7153300e-01  -1.8480000e-02
   9.0389000e-01  -4.8391800e-01  -9.3196000e-02
   9.0389700e-01  -4.7400300e-01   0.0000000e+00
   9.0391500e-01  -4.6909700e-01  -6.7781000e-02
   9.0393000e-01  -5.0664200e-01  -1.7068500e-01
   9.0398000e-01  -4.7406700e-01  -6.1750000e-02
   9.0398800e-01  -5.1178900e-01  -1.3261000e-01
   9.0400000e-01  -5.2214100e-01  -1.4614400e-01
   9.0400400e-01  -5.1695800e-01   4.4098000e-02
   9.0403200e-01  -4.6673500e-01  -6.7714000e-02
   9.0407500e-01  -6.2517800e-01   2.6627000e-02
   9.0408400e-01  -4.6922600e-01  -1.2308000e-02
   9.0409400e-01  -4.6678200e-01  -4.9215000e-02
   9.0410000e-01  -5.0931200e-01   3.7654000e-02
   9.0410700e-01  -5.0678700e-01   4.3883000e-02
   9.0411300e-01  -4.9662100e-01  -1.1899400e-01
   9.0412800e-01  -4.6436400e-01  -2.4566000e-02
   9.0412900e-01  -4.6926100e-01  -6.1540000e-03
   9.0414400e-01  -4.6927200e-01   0.0000000e+00
   9.0414600e-01  -5.0426500e-01  -1.7052000e-01
   9.0423000e-01  -4.6933800e-01  -6.1627000e-02
   9.0423300e-01  -4.6444400e-01  -1.8425000e-02
   9.0430000e-01  -4.9424500e-01  -1.1887800e-01
   9.0431600e-01  -5.3284400e-01   5.7182000e-02
   9.0431700e-01  -5.7432500e-01   5.8397000e-02
   9.0431900e-01  -4.6695400e-01  -4.3067000e-02
   9.0433300e-01  -5.1982100e-01  -1.5890900e-01
   9.0434700e-01  -4.6697600e-01  -6.1566000e-02
   9.0443200e-01  -4.8931900e-01  -1.1231600e-01
   9.0443800e-01  -5.9112100e-01   5.2355000e-02
   9.0445500e-01  -6.4626100e-01  -1.2168500e-01
   9.0450200e-01  -4.7942200e-01  -1.1806300e-01
   9.0451400e-01  -5.0201600e-01   4.3797000e-02
   9.0451500e-01  -4.6955700e-01  -5.5471000e-02
   9.0453500e-01  -5.4629400e-01  -1.5450700e-01
   9.0454000e-01  -4.7697200e-01   6.1790000e-03
   9.0455700e-01  -5.2521300e-01  -1.5289300e-01
   9.0458200e-01  -5.2262700e-01   5.6906000e-02
   9.0460000e-01  -4.8694700e-01  -1.1220600e-01
   9.0462400e-01  -4.8696600e-01   1.8628000e-02
   9.0463200e-01  -4.6719400e-01  -5.5416000e-02
   9.0463300e-01  -5.9978400e-01   5.2601000e-02
   9.0463300e-01  -5.0466000e-01  -1.3222500e-01
   9.0466500e-01  -4.8699800e-01  -1.7557800e-01
   9.0477000e-01  -5.8024100e-01   6.5123000e-02
   9.0478900e-01  -4.6486600e-01  -3.0736000e-02
   9.0480100e-01  -5.3589300e-01   5.7293000e-02
   9.0483000e-01  -5.6053800e-01   5.8010000e-02
   9.0485500e-01  -4.9468800e-01  -1.1264700e-01
   9.0489900e-01  -4.7477800e-01  -7.4227000e-02
   9.0490300e-01  -4.9978900e-01   3.7507000e-02
   9.0490600e-01  -4.7478400e-01  -8.6655000e-02
   9.0495700e-01  -4.8973500e-01  -1.0610000e-01
   9.0503500e-01  -5.0754200e-01  -1.2608300e-01
   9.0505900e-01  -4.7985600e-01  -1.1187600e-01
   9.0506800e-01  -5.2043200e-01  -1.5260000e-01
   9.0506900e-01  -4.7986400e-01   1.8572000e-02
   9.0508000e-01  -5.2044200e-01   5.0540000e-02
   9.0509100e-01  -5.2827600e-01   5.0736000e-02
   9.0510400e-01  -4.6510600e-01  -1.2296000e-02
   9.0514400e-01  -4.7992200e-01   1.2382000e-02
   9.0523700e-01  -5.4690100e-01  -1.4811300e-01
   9.0524400e-01  -4.7504500e-01  -6.8051000e-02
   9.0526100e-01  -5.2580200e-01  -1.4656600e-01
   9.0526800e-01  -5.0262500e-01  -1.1945900e-01
   9.0527700e-01  -4.8500800e-01  -1.0589200e-01
   9.0530400e-01  -4.8750300e-01   2.4860000e-02
   9.0531200e-01  -4.7509700e-01  -8.0479000e-02
   9.0546300e-01  -5.3910400e-01  -1.6059000e-01
   9.0553300e-01  -4.8520900e-01  -1.1220600e-01
   9.0553400e-01  -5.3127300e-01  -1.5348000e-01
   9.0555800e-01  -4.8522800e-01   1.8628000e-02
   9.0557700e-01  -5.1567300e-01  -1.6521200e-01
   9.0558500e-01  -4.8026600e-01  -1.0568300e-01
   9.0559100e-01  -5.3132100e-01   5.0834000e-02
   9.0560600e-01  -4.8277100e-01   2.4811000e-02
   9.0565600e-01  -6.3551500e-01  -1.4830800e-01
   9.0565600e-01  -5.0039500e-01  -1.2571600e-01
   9.0571100e-01  -4.8285300e-01   1.8609000e-02
   9.0571600e-01  -4.7047800e-01   6.1670000e-03
   9.0573000e-01  -4.6558300e-01  -6.7781000e-02
   9.0577300e-01  -4.8539800e-01  -9.9683000e-02
   9.0583200e-01  -5.2366900e-01   6.3344000e-02
   9.0587000e-01  -5.1076000e-01  -1.3915600e-01
   9.0596200e-01  -4.7807700e-01  -8.0639000e-02
   9.0603000e-01  -4.6092900e-01  -1.8425000e-02
   9.0603600e-01  -4.9816300e-01   3.1258000e-02
   9.0604400e-01  -5.1090300e-01  -1.6489500e-01
   9.0604600e-01  -4.6582300e-01  -6.1627000e-02
   9.0608200e-01  -4.8065300e-01  -9.9487000e-02
   9.0610400e-01  -4.8565800e-01   3.1074000e-02
   9.0611500e-01  -5.2651800e-01   5.0736000e-02
   9.0617400e-01  -5.7323400e-01   5.8452000e-02
   9.0619700e-01  -5.3973100e-01  -1.5421400e-01
   9.0620700e-01  -5.0849700e-01   5.0294000e-02
   9.0622600e-01  -5.1105100e-01   4.4055000e-02
   9.0623900e-01  -5.3186800e-01  -1.4712900e-01
   9.0623900e-01  -4.8576400e-01   2.4860000e-02
