1.076496,-0.610556,0.151055
1.074857,-0.609282,0.143188
1.075533,-0.609807,0.135684
1.076172,-0.610304,0.128174
1.076775,-0.610772,0.120659
1.073409,-0.608158,0.112680
1.073937,-0.608568,0.105188
1.074429,-0.608950,0.097691
1.074884,-0.609303,0.090190
1.075303,-0.609629,0.082686
1.075685,-0.609926,0.075179
1.076031,-0.610194,0.067669
1.075552,-0.609822,0.060108
1.075825,-0.610034,0.052599
1.077641,-0.611444,0.045162
1.072315,-0.607309,0.037423
1.078006,-0.611727,0.030112
1.078133,-0.611827,0.022585
1.076645,-0.610671,0.015033
1.076699,-0.610713,0.007516
1.076718,-0.610727,0.000000
1.076699,-0.610713,-0.007516
1.077435,-0.611284,-0.015045
1.072968,-0.610583,0.181212
1.073046,-0.610644,0.173572
1.073086,-0.610675,0.165938
1.073871,-0.611287,0.158438
1.074620,-0.611870,0.150932
1.071415,-0.609373,0.142839
1.072088,-0.609897,0.135353
1.072725,-0.610394,0.127861
1.071756,-0.609638,0.120169
1.067607,-0.606405,0.112129
1.071275,-0.609263,0.105016
1.071765,-0.609645,0.097531
1.072219,-0.609999,0.090043
1.072636,-0.610325,0.082551
1.074592,-0.611849,0.075179
1.074938,-0.612118,0.067669
1.075247,-0.612360,0.060157
1.073944,-0.611344,0.052556
1.078122,-0.614600,0.045236
1.074380,-0.611684,0.037546
1.074544,-0.611811,0.030038
1.074671,-0.611910,0.022530
1.074762,-0.611981,0.015020
1.074816,-0.612024,0.007510
1.077990,-0.614497,0.000000
1.077971,-0.614483,-0.007535
1.078705,-0.615055,-0.015082
1.083346,-0.618671,-0.022732
1.070993,-0.611779,0.188705
1.071887,-0.612478,0.181212
1.072745,-0.613149,0.173713
1.073566,-0.613791,0.166207
1.074351,-0.614406,0.158695
1.073537,-0.613768,0.150932
1.073466,-0.613713,0.143305
1.074140,-0.614240,0.135794
1.074778,-0.614739,0.128278
1.073028,-0.613371,0.120463
1.071239,-0.611971,0.112680
1.069412,-0.610542,0.104930
1.069901,-0.610924,0.097452
1.070354,-0.611279,0.089969
1.070771,-0.611605,0.082484
1.076654,-0.616207,0.075425
1.078573,-0.617708,0.068001
1.077310,-0.616720,0.060353
1.079158,-0.618165,0.052900
1.080182,-0.618967,0.045383
1.080383,-0.619124,0.037822
1.077398,-0.616789,0.030161
1.080676,-0.619353,0.022695
1.077617,-0.616960,0.015082
1.071370,-0.612074,0.007492
1.074539,-0.614552,0.000000
1.074521,-0.614538,-0.007516
1.074466,-0.614496,-0.015033
1.080676,-0.619353,-0.022695
1.070968,-0.615756,0.189010
1.067197,-0.612790,0.180625
1.067271,-0.612848,0.173010
1.068088,-0.613490,0.165534
1.066530,-0.612265,0.157667
1.067272,-0.612849,0.150198
1.067979,-0.613404,0.142723
1.069430,-0.614546,0.135353
1.070065,-0.615045,0.127861
1.070664,-0.615516,0.120365
1.071226,-0.615958,0.112864
1.074885,-0.618836,0.105702
1.075377,-0.619222,0.098169
1.071128,-0.615881,0.090190
1.071545,-0.616209,0.082686
1.071926,-0.616509,0.075179
1.072270,-0.616780,0.067669
1.072579,-0.617022,0.060157
1.078348,-0.621559,0.052943
1.078585,-0.621745,0.045383
1.078786,-0.621903,0.037822
1.072663,-0.617089,0.030063
1.072004,-0.616570,0.022530
1.071309,-0.616023,0.015008
1.072149,-0.616684,0.007510
1.072167,-0.616699,0.000000
1.071363,-0.616066,-0.007504
1.073667,-0.617878,-0.015045
1.078292,-0.621515,-0.022677
1.066706,-0.614940,0.196031
1.063753,-0.612610,0.187788
1.064639,-0.613309,0.180332
1.069376,-0.617047,0.173572
1.070194,-0.617692,0.166073
1.070976,-0.618309,0.158567
1.072501,-0.619513,0.151177
1.073211,-0.620073,0.143654
1.072325,-0.619373,0.135904
1.072961,-0.619876,0.128382
1.073561,-0.620349,0.120855
1.067872,-0.615860,0.112588
1.066832,-0.615039,0.104930
1.068884,-0.616659,0.097611
1.067770,-0.615780,0.089969
1.068186,-0.616108,0.082484
1.068565,-0.616407,0.074995
1.068908,-0.616678,0.067504
1.069215,-0.616920,0.060010
1.072624,-0.619609,0.052685
1.072859,-0.619795,0.045162
1.072274,-0.619334,0.037607
1.072437,-0.619462,0.030088
1.070994,-0.618324,0.022530
1.071084,-0.618395,0.015020
1.071139,-0.618438,0.007510
1.071157,-0.618452,0.000000
1.071139,-0.618438,-0.007510
1.071869,-0.619014,-0.015033
1.074134,-0.620801,-0.022603
1.067030,-0.618283,0.196349
1.064084,-0.615948,0.188093
1.062644,-0.614808,0.180185
1.060389,-0.613021,0.172166
1.061199,-0.613662,0.164727
1.061973,-0.614276,0.157282
1.064268,-0.616094,0.150075
1.064193,-0.616035,0.142490
1.065639,-0.617181,0.135132
1.068610,-0.619534,0.127965
1.069207,-0.620007,0.120463
1.068988,-0.619834,0.112864
1.069513,-0.620249,0.105359
1.068439,-0.619399,0.097691
1.066546,-0.617899,0.089969
1.069307,-0.620086,0.082686
1.069686,-0.620387,0.075179
1.070030,-0.620659,0.067669
1.070337,-0.620902,0.060157
1.070608,-0.621117,0.052642
1.070843,-0.621303,0.045126
1.071042,-0.621461,0.037607
1.068854,-0.619728,0.030014
1.069764,-0.620449,0.022530
1.069855,-0.620520,0.015020
1.071476,-0.621805,0.007523
1.070711,-0.621198,0.000000
1.070693,-0.621184,-0.007516
1.071422,-0.621762,-0.015045
1.072899,-0.622932,-0.022603
1.068241,-0.622034,0.196825
1.061433,-0.616620,0.187788
1.062317,-0.617323,0.180332
1.063165,-0.617998,0.172869
1.063977,-0.618644,0.165400
1.064754,-0.619261,0.157924
1.066271,-0.620468,0.150565
1.066976,-0.621028,0.143072
1.067645,-0.621560,0.135573
1.068278,-0.622064,0.128070
1.068876,-0.622539,0.120561
1.066319,-0.620506,0.112680
1.066842,-0.620922,0.105188
1.067329,-0.621309,0.097691
1.067780,-0.621668,0.090190
1.068976,-0.622619,0.082754
1.069356,-0.622920,0.075241
1.067355,-0.621329,0.067559
1.069225,-0.622816,0.060157
1.069495,-0.623031,0.052642
1.069730,-0.623218,0.045126
1.069929,-0.623376,0.037607
1.070091,-0.623505,0.030088
1.068653,-0.622361,0.022530
1.068743,-0.622433,0.015020
1.068797,-0.622476,0.007510
1.068815,-0.622490,0.000000
1.068797,-0.622476,-0.007510
1.067178,-0.621188,-0.014996
1.067088,-0.621117,-0.022493
1.066962,-0.621017,-0.029989
1.065407,-0.622538,0.204162
1.063282,-0.620841,0.196031
1.061114,-0.619112,0.187941
1.063544,-0.621051,0.180772
1.061298,-0.619258,0.172728
1.062108,-0.619905,0.165265
1.062883,-0.620523,0.157796
1.064397,-0.621732,0.150443
1.065101,-0.622293,0.142956
1.065768,-0.622826,0.135463
1.066400,-0.623330,0.127965
1.066996,-0.623806,0.120463
1.068334,-0.624873,0.113048
1.068858,-0.625292,0.105531
1.069346,-0.625681,0.098009
1.069798,-0.626042,0.090484
1.070214,-0.626374,0.082956
1.070594,-0.626677,0.075425
1.069377,-0.625706,0.067780
1.071245,-0.627197,0.060353
1.069955,-0.626167,0.052728
1.070189,-0.626354,0.045199
1.068826,-0.625266,0.037607
1.068207,-0.624772,0.030063
1.068333,-0.624873,0.022548
1.070768,-0.626816,0.015069
1.068477,-0.624988,0.007516
1.068495,-0.625002,0.000000
1.070822,-0.626859,-0.007535
1.069204,-0.625568,-0.015045
1.069114,-0.625496,-0.022567
1.059451,-0.620565,0.210796
1.060443,-0.621360,0.203338
1.061399,-0.622125,0.195872
1.062319,-0.622862,0.188399
1.061659,-0.622334,0.180625
1.062506,-0.623012,0.173150
1.063318,-0.623662,0.165669
1.064093,-0.624283,0.158181
1.064833,-0.624876,0.150688
1.065536,-0.625440,0.143188
1.066980,-0.626596,0.135794
1.066836,-0.626481,0.128174
1.067432,-0.626958,0.120659
1.067991,-0.627406,0.113140
1.069293,-0.628449,0.105702
1.069781,-0.628840,0.098169
1.071790,-0.630449,0.090779
1.072207,-0.630782,0.083226
1.071029,-0.629839,0.075547
1.070593,-0.629490,0.067945
1.069342,-0.628488,0.060304
1.067273,-0.626831,0.052642
1.065167,-0.625144,0.045015
1.063025,-0.623428,0.037423
1.065527,-0.625432,0.030014
1.065652,-0.625533,0.022511
1.065742,-0.625605,0.015008
1.066577,-0.626273,0.007510
1.066595,-0.626287,0.000000
1.064235,-0.624397,-0.007492
1.068084,-0.627480,-0.015045
1.067994,-0.627408,-0.022567
1.067867,-0.627307,-0.030088
1.060671,-0.625528,0.219131
1.061701,-0.626357,0.211651
1.062694,-0.627157,0.204162
1.061345,-0.626071,0.196190
1.062265,-0.626812,0.188705
1.062379,-0.626903,0.181065
1.061684,-0.626343,0.173291
1.062494,-0.626996,0.165803
1.060179,-0.625132,0.157796
1.060142,-0.625102,0.150198
1.061616,-0.626289,0.142839
1.064603,-0.628694,0.135684
1.062135,-0.626707,0.127757
1.061952,-0.626560,0.120169
1.062509,-0.627008,0.112680
1.063029,-0.627427,0.105188
1.063514,-0.627817,0.097691
1.066293,-0.630055,0.090411
1.066707,-0.630389,0.082889
1.067086,-0.630693,0.075363
1.067428,-0.630969,0.067835
1.066178,-0.629962,0.060206
1.066448,-0.630180,0.052685
1.063568,-0.627861,0.045015
1.068437,-0.631781,0.037699
1.063927,-0.628150,0.030014
1.069504,-0.632640,0.022640
1.068036,-0.631458,0.015069
1.068090,-0.631502,0.007535
1.066550,-0.630262,0.000000
1.066532,-0.630248,-0.007523
1.066478,-0.630204,-0.015045
1.066389,-0.630132,-0.022567
1.073271,-0.635673,-0.030308
1.063740,-0.630570,0.212335
1.060900,-0.628275,0.203998
1.060319,-0.627807,0.196190
1.060469,-0.627928,0.188552
1.061351,-0.628640,0.181065
1.062198,-0.629324,0.173572
1.061467,-0.628734,0.165803
1.062240,-0.629358,0.158310
1.062978,-0.629954,0.150810
1.063680,-0.630522,0.143305
1.059707,-0.627312,0.135132
1.060334,-0.627819,0.127653
1.060151,-0.627671,0.120071
1.061481,-0.628745,0.112680
1.062776,-0.629792,0.105273
1.063261,-0.630183,0.097770
1.063709,-0.630546,0.090264
1.066451,-0.632760,0.082956
1.064499,-0.631184,0.075241
1.064841,-0.631459,0.067725
1.067477,-0.633589,0.060353
1.067747,-0.633807,0.052814
1.067203,-0.633368,0.045236
1.067401,-0.633528,0.037699
1.067563,-0.633659,0.030161
1.067689,-0.633761,0.022622
1.067001,-0.633205,0.015069
1.063944,-0.630735,0.007510
1.067073,-0.633263,0.000000
1.062388,-0.629478,-0.007498
1.067001,-0.633205,-0.015069
1.066912,-0.633133,-0.022603
1.071451,-0.636800,-0.030284
1.053189,-0.625139,0.233311
1.053520,-0.625407,0.225688
1.054577,-0.626265,0.218246
1.056365,-0.627715,0.210967
1.057352,-0.628516,0.203503
1.057537,-0.628667,0.195872
1.057685,-0.628787,0.188246
1.057797,-0.628877,0.180625
1.058639,-0.629561,0.173150
1.059447,-0.630215,0.165669
1.064069,-0.633965,0.158824
1.064808,-0.634565,0.151300
1.065511,-0.635135,0.143770
1.058460,-0.629415,0.135132
1.059086,-0.629922,0.127653
1.055812,-0.627267,0.119679
1.060231,-0.630852,0.112680
1.060750,-0.631273,0.105188
1.061233,-0.631665,0.097691
1.061681,-0.632028,0.090190
1.062093,-0.632362,0.082686
1.062469,-0.632667,0.075179
1.062809,-0.632943,0.067669
1.063890,-0.633819,0.060206
1.064934,-0.634667,0.052728
1.069048,-0.638004,0.045383
1.066141,-0.635646,0.037699
1.066303,-0.635777,0.030161
1.066429,-0.635879,0.022622
1.066519,-0.635952,0.015082
1.066573,-0.635996,0.007541
1.061931,-0.632231,0.000000
1.066573,-0.635996,-0.007541
1.067295,-0.636582,-0.015094
1.066429,-0.635879,-0.022622
1.074067,-0.642075,-0.030407
1.055745,-0.630015,0.218777
1.055240,-0.629604,0.210967
1.056226,-0.630407,0.203503
1.058708,-0.632428,0.196349
1.059624,-0.633174,0.188857
1.058204,-0.632017,0.180919
1.062118,-0.635204,0.173994
1.059855,-0.633361,0.165938
1.060626,-0.633989,0.158438
1.061362,-0.634589,0.150932
1.062063,-0.635159,0.143421
1.061186,-0.634445,0.135684
1.061813,-0.634956,0.128174
1.056231,-0.630411,0.119875
1.062962,-0.635891,0.113140
1.058846,-0.632540,0.105102
1.059329,-0.632933,0.097611
1.060549,-0.633926,0.090190
1.060960,-0.634261,0.082686
1.060562,-0.633937,0.075118
1.060901,-0.634213,0.067614
1.061205,-0.634461,0.060108
1.061473,-0.634679,0.052599
1.061705,-0.634868,0.045089
1.063452,-0.636290,0.037638
1.063614,-0.636422,0.030112
1.059087,-0.632736,0.022475
1.059176,-0.632809,0.014984
1.063882,-0.636640,0.007529
1.061574,-0.634761,0.000000
1.063882,-0.636640,-0.007529
1.063829,-0.636597,-0.015057
1.062188,-0.635261,-0.022548
1.062063,-0.635159,-0.030063
1.065778,-0.638184,-0.037730
1.059310,-0.635738,0.235390
1.058888,-0.635393,0.227519
1.056140,-0.633148,0.219131
1.057164,-0.633985,0.211651
1.058152,-0.634792,0.204162
1.056810,-0.633696,0.196190
1.057725,-0.634443,0.188705
1.057072,-0.633909,0.180919
1.056380,-0.633344,0.173150
1.057185,-0.634002,0.165669
1.058722,-0.635258,0.158310
1.057920,-0.634602,0.150565
1.057079,-0.633915,0.142839
1.060819,-0.636971,0.135794
1.058365,-0.634966,0.127861
1.058955,-0.635448,0.120365
1.059509,-0.635901,0.112864
1.063114,-0.638846,0.105702
1.060510,-0.636719,0.097850
1.060185,-0.636453,0.090264
1.058278,-0.634895,0.082551
1.058653,-0.635201,0.075057
1.058992,-0.635478,0.067559
1.059295,-0.635726,0.060059
1.061883,-0.637841,0.052685
1.066759,-0.641825,0.045383
1.062312,-0.638192,0.037638
1.062473,-0.638323,0.030112
1.064147,-0.639691,0.022622
1.064237,-0.639764,0.015082
1.062742,-0.638542,0.007529
1.064308,-0.639823,0.000000
1.064290,-0.639808,-0.007541
1.061914,-0.637866,-0.015045
1.061824,-0.637793,-0.022567
1.064022,-0.639588,-0.030161
1.064634,-0.640089,-0.037730
1.053464,-0.634974,0.226603
1.053000,-0.634593,0.218777
1.053258,-0.634805,0.211138
1.055004,-0.636239,0.203833
1.055952,-0.637018,0.196349
1.053811,-0.635259,0.188246
1.054686,-0.635978,0.180772
1.057820,-0.638552,0.173713
1.058626,-0.639214,0.166207
1.059396,-0.639847,0.158695
1.060131,-0.640450,0.151177
1.059295,-0.639764,0.143421
1.059957,-0.640308,0.135904
1.058278,-0.638928,0.128070
1.061175,-0.641308,0.120855
1.061730,-0.641764,0.113324
1.059940,-0.640293,0.105531
1.056571,-0.637526,0.097611
1.057016,-0.637892,0.090117
1.057425,-0.638228,0.082619
1.061656,-0.641703,0.075425
1.061995,-0.641982,0.067890
1.062299,-0.642232,0.060353
1.062568,-0.642452,0.052814
1.062800,-0.642643,0.045273
1.061452,-0.641536,0.037669
1.062386,-0.642302,0.030161
1.062511,-0.642405,0.022622
1.062600,-0.642478,0.015082
1.062654,-0.642523,0.007541
1.062672,-0.642537,0.000000
1.062654,-0.642523,-0.007541
1.063373,-0.643113,-0.015094
1.062511,-0.642405,-0.022622
1.062386,-0.642302,-0.030161
1.062997,-0.642805,-0.037730
1.057004,-0.640402,0.227702
1.057305,-0.640650,0.220016
1.055287,-0.638988,0.211822
1.056273,-0.639800,0.204327
1.060270,-0.643094,0.197461
1.058136,-0.641336,0.189316
1.056725,-0.640173,0.181359
1.056038,-0.639607,0.173572
1.058371,-0.641530,0.166342
1.057611,-0.640903,0.158567
1.058344,-0.641507,0.151055
1.059041,-0.642082,0.143537
1.058169,-0.641363,0.135794
1.058794,-0.641878,0.128278
1.057848,-0.641098,0.120561
1.058401,-0.641554,0.113048
1.058918,-0.641980,0.105531
1.059400,-0.642378,0.098009
1.059847,-0.642745,0.090484
1.060257,-0.643084,0.082956
1.060632,-0.643393,0.075425
1.060972,-0.643672,0.067890
1.061275,-0.643923,0.060353
1.061543,-0.644143,0.052814
1.061775,-0.644335,0.045273
1.061201,-0.643861,0.037699
1.060590,-0.643358,0.030137
1.061486,-0.644096,0.022622
1.061576,-0.644170,0.015082
1.063172,-0.645486,0.007553
1.063962,-0.646137,0.000000
1.063944,-0.646122,-0.007559
1.063119,-0.645442,-0.015106
1.063029,-0.645368,-0.022659
1.063676,-0.645901,-0.030235
1.063515,-0.645768,-0.037791
1.066403,-0.648148,-0.045494
1.047070,-0.635334,0.233311
1.048156,-0.636232,0.225871
1.049206,-0.637101,0.218423
1.054776,-0.641710,0.211993
1.055760,-0.642524,0.204492
1.056709,-0.643310,0.196984
1.056100,-0.642805,0.189163
1.056976,-0.643531,0.181652
1.054003,-0.641071,0.173432
1.054805,-0.641734,0.165938
1.055572,-0.642369,0.158438
1.056303,-0.642974,0.150932
1.056999,-0.643550,0.143421
1.058425,-0.644730,0.136014
1.059050,-0.645247,0.128486
1.059640,-0.645735,0.120953
1.060194,-0.646193,0.113416
1.056107,-0.642811,0.105359
1.054283,-0.641302,0.097611
1.054727,-0.641669,0.090117
1.057441,-0.643915,0.082821
1.057815,-0.644225,0.075302
1.057384,-0.643868,0.067725
1.059225,-0.645392,0.060304
1.057953,-0.644339,0.052685
1.058184,-0.644530,0.045162
1.057610,-0.644055,0.037607
1.057770,-0.644187,0.030088
1.057894,-0.644290,0.022567
1.061835,-0.647551,0.015106
1.058037,-0.644408,0.007523
1.057284,-0.643785,0.000000
1.062659,-0.648233,-0.007559
1.065687,-0.650738,-0.015168
1.060205,-0.646203,-0.022622
1.060851,-0.646737,-0.030186
1.065311,-0.650427,-0.037914
1.065114,-0.650264,-0.045494
1.050465,-0.640971,0.234445
1.050041,-0.640619,0.226603
1.049579,-0.640235,0.218777
1.052110,-0.642337,0.211651
1.050815,-0.641261,0.203668
1.050999,-0.641414,0.196031
1.051907,-0.642168,0.188552
1.052779,-0.642893,0.181065
1.052855,-0.642955,0.173432
1.053656,-0.643620,0.165938
1.055947,-0.645523,0.158695
1.055151,-0.644863,0.150932
1.055846,-0.645440,0.143421
1.058035,-0.647257,0.136124
1.057129,-0.646505,0.128382
1.056186,-0.645722,0.120659
1.056738,-0.646180,0.113140
1.058787,-0.647882,0.105788
1.057735,-0.647008,0.098089
1.058180,-0.647378,0.090558
1.057823,-0.647081,0.082956
1.058964,-0.648029,0.075486
1.058535,-0.647672,0.067890
1.057301,-0.646647,0.060255
1.057567,-0.646869,0.052728
1.057030,-0.646422,0.045162
1.057225,-0.646585,0.037638
1.058154,-0.647356,0.030137
1.058279,-0.647459,0.022603
1.059906,-0.648811,0.015094
1.060729,-0.649494,0.007553
1.059977,-0.648870,0.000000
1.059959,-0.648855,-0.007547
1.062214,-0.650727,-0.015131
1.062124,-0.650653,-0.022695
1.061999,-0.650549,-0.030259
1.064146,-0.652332,-0.037914
1.063949,-0.652168,-0.045494
1.049307,-0.642807,0.249973
1.049715,-0.643146,0.242302
1.048576,-0.642197,0.234256
1.049663,-0.643103,0.226786
1.050714,-0.643979,0.219308
1.051730,-0.644826,0.211822
1.051196,-0.644380,0.203998
1.052139,-0.645167,0.196508
1.050771,-0.644026,0.188552
1.053921,-0.646652,0.181506
1.054759,-0.647350,0.173994
1.055561,-0.648019,0.166476
1.055567,-0.648023,0.158824
1.056298,-0.648632,0.151300
1.056993,-0.649212,0.143770
1.057653,-0.649762,0.136235
1.058277,-0.650282,0.128694
1.055808,-0.648225,0.120757
1.056360,-0.648684,0.113232
1.056110,-0.648476,0.105616
1.055825,-0.648238,0.098009
1.056269,-0.648608,0.090484
1.056677,-0.648949,0.082956
1.056284,-0.648621,0.075363
1.057389,-0.649542,0.067890
1.058458,-0.650433,0.060402
1.057190,-0.649376,0.052771
1.060492,-0.652128,0.045383
1.062223,-0.653571,0.037883
1.060848,-0.652425,0.030259
1.060205,-0.651889,0.022677
1.060294,-0.651963,0.015119
1.060347,-0.652008,0.007559
1.060365,-0.652023,0.000000
1.060347,-0.652008,-0.007559
1.061062,-0.652603,-0.015131
1.060973,-0.652529,-0.022695
1.060848,-0.652425,-0.030259
1.060688,-0.652291,-0.037822
1.065098,-0.655967,-0.045604
1.042706,-0.641365,0.256404
1.045396,-0.643619,0.249370
1.045048,-0.643327,0.241522
1.047672,-0.645525,0.234445
1.051772,-0.648960,0.227702
1.052825,-0.649842,0.220193
1.047801,-0.645633,0.211309
1.048777,-0.646451,0.203833
1.044421,-0.642801,0.195237
1.045321,-0.643556,0.187788
1.045429,-0.643646,0.180185
1.046259,-0.644341,0.172728
1.051611,-0.648825,0.166073
1.052374,-0.649465,0.158567
1.048538,-0.646251,0.150320
1.048466,-0.646190,0.142723
1.049120,-0.646738,0.135243
1.048976,-0.646617,0.127653
1.049559,-0.647106,0.120169
1.050870,-0.648204,0.112772
1.054437,-0.651193,0.105616
1.054916,-0.651594,0.098089
1.055360,-0.651966,0.090558
1.055768,-0.652308,0.083023
1.058436,-0.654543,0.075670
1.056478,-0.652903,0.067945
1.056014,-0.652514,0.060353
1.057812,-0.654021,0.052900
1.056511,-0.652931,0.045273
1.055940,-0.652452,0.037699
1.056100,-0.652586,0.030161
1.056224,-0.652690,0.022622
1.054780,-0.651480,0.015057
1.054833,-0.651524,0.007529
1.054851,-0.651539,0.000000
1.054833,-0.651524,-0.007529
1.058612,-0.654691,-0.015119
1.058523,-0.654616,-0.022677
1.058399,-0.654512,-0.030235
1.060537,-0.656304,-0.037883
1.060341,-0.656139,-0.045457
1.039703,-0.641773,0.248163
1.043103,-0.644632,0.241327
1.047225,-0.648099,0.234634
1.050566,-0.650909,0.227702
1.051618,-0.651793,0.220193
1.051126,-0.651380,0.212335
1.052861,-0.652838,0.204987
1.053806,-0.653633,0.197461
1.053959,-0.653762,0.189774
1.054075,-0.653860,0.182093
1.056428,-0.655839,0.174838
1.055715,-0.655239,0.167015
1.055722,-0.655245,0.159338
1.055693,-0.655221,0.151667
1.054107,-0.653887,0.143770
1.052483,-0.652521,0.135904
1.050820,-0.651122,0.128070
1.055974,-0.655456,0.121149
1.051952,-0.652074,0.113048
1.052465,-0.652506,0.105531
1.052943,-0.652908,0.098009
1.051096,-0.651354,0.090264
1.051502,-0.651696,0.082754
1.051873,-0.652008,0.075241
1.051445,-0.651648,0.067669
1.051745,-0.651900,0.060157
1.055068,-0.654695,0.052814
1.053769,-0.653602,0.045199
1.053964,-0.653766,0.037669
1.054123,-0.653900,0.030137
1.052716,-0.652717,0.022567
1.052804,-0.652791,0.015045
1.052858,-0.652836,0.007523
1.055171,-0.654781,0.000000
1.055153,-0.654767,-0.007541
1.055866,-0.655365,-0.015094
1.058073,-0.657221,-0.022695
1.058713,-0.657760,-0.030284
1.058553,-0.657626,-0.037853
1.059888,-0.658748,-0.045494
1.061185,-0.659839,-0.053158
1.045454,-0.649805,0.257854
1.046646,-0.650811,0.250375
1.047802,-0.651787,0.242887
1.044421,-0.648932,0.234256
1.045502,-0.649845,0.226786
1.046548,-0.650728,0.219308
1.047558,-0.651581,0.211822
1.048534,-0.652405,0.204327
1.046457,-0.650651,0.196190
1.047359,-0.651413,0.188705
1.048226,-0.652145,0.181212
1.049058,-0.652848,0.173713
1.047584,-0.651603,0.165803
1.050617,-0.654164,0.158695
1.051343,-0.654777,0.151177
1.052034,-0.655360,0.143654
1.052690,-0.655914,0.136124
1.053310,-0.656438,0.128590
1.052375,-0.655648,0.120855
1.052924,-0.656112,0.113324
1.051915,-0.655260,0.105616
1.052392,-0.655663,0.098089
1.052835,-0.656036,0.090558
1.050954,-0.654449,0.082821
1.053613,-0.656694,0.075486
1.051661,-0.655045,0.067780
1.051198,-0.654654,0.060206
1.052225,-0.655522,0.052728
1.053218,-0.656361,0.045236
1.051886,-0.655235,0.037638
1.053572,-0.656659,0.030161
1.053696,-0.656764,0.022622
1.053784,-0.656838,0.015082
1.053073,-0.656238,0.007535
1.053091,-0.656253,0.000000
1.050017,-0.653657,-0.007510
1.053020,-0.656193,-0.015069
1.052932,-0.656119,-0.022603
1.052808,-0.656014,-0.030137
1.054940,-0.657815,-0.037761
1.057800,-0.660229,-0.045457
1.058332,-0.660679,-0.053072
1.034588,-0.643451,0.255161
1.043985,-0.651415,0.249973
1.045138,-0.652392,0.242497
1.046255,-0.653339,0.235012
1.047338,-0.654257,0.227519
1.043880,-0.651326,0.218954
1.044888,-0.652180,0.211480
1.045860,-0.653004,0.203998
1.045291,-0.652522,0.196190
1.046192,-0.653286,0.188705
1.047812,-0.654659,0.181359
1.046378,-0.653443,0.173432
1.047172,-0.654116,0.165938
1.044905,-0.652195,0.157924
1.044112,-0.651523,0.150198
1.044798,-0.652104,0.142723
1.046965,-0.653941,0.135463
1.047582,-0.654463,0.127965
1.047404,-0.654313,0.120365
1.048710,-0.655419,0.112956
1.048461,-0.655208,0.105359
1.048176,-0.654967,0.097770
1.048616,-0.655340,0.090264
1.049021,-0.655683,0.082754
1.049391,-0.655996,0.075241
1.048964,-0.655634,0.067669
1.050025,-0.656534,0.060206
1.050289,-0.656758,0.052685
1.050518,-0.656952,0.045162
1.049949,-0.656470,0.037607
1.049345,-0.655958,0.030063
1.047180,-0.654123,0.022493
1.047268,-0.654197,0.014996
1.047320,-0.654242,0.007498
1.047338,-0.654257,0.000000
1.049609,-0.656181,-0.007516
1.049556,-0.656137,-0.015033
1.052519,-0.658648,-0.022622
1.052396,-0.658543,-0.030161
1.053762,-0.659701,-0.037761
1.058142,-0.663413,-0.045531
1.059435,-0.664509,-0.053201
1.037449,-0.648680,0.264044
1.040901,-0.651617,0.257232
1.042832,-0.653259,0.249973
1.043236,-0.653603,0.242302
1.045099,-0.655187,0.235012
1.046180,-0.656106,0.227519
1.044977,-0.655083,0.219485
1.044484,-0.654664,0.211651
1.045456,-0.655491,0.204162
1.045640,-0.655648,0.196508
1.047294,-0.657054,0.189163
1.048161,-0.657791,0.181652
1.048238,-0.657857,0.173994
1.049034,-0.658534,0.166476
1.044506,-0.654683,0.158053
1.045228,-0.655296,0.150565
1.044401,-0.654593,0.142839
1.045051,-0.655146,0.135353
1.050212,-0.659535,0.128486
1.050795,-0.660031,0.120953
1.051342,-0.660497,0.113416
1.051855,-0.660933,0.105874
1.052332,-0.661339,0.098328
1.048216,-0.657838,0.090337
1.047861,-0.657536,0.082754
1.048230,-0.657850,0.075241
1.053127,-0.662015,0.068056
1.051145,-0.660329,0.060353
1.052171,-0.661202,0.052857
1.052400,-0.661397,0.045310
1.052594,-0.661562,0.037761
1.051992,-0.661049,0.030186
1.052877,-0.661802,0.022659
1.049157,-0.658638,0.015045
1.048448,-0.658035,0.007516
1.049227,-0.658698,0.000000
1.062159,-0.669697,-0.007627
1.048395,-0.657990,-0.015033
1.054400,-0.663098,-0.022695
1.055038,-0.663640,-0.030284
1.054117,-0.662857,-0.037822
1.053923,-0.662692,-0.045383
1.054454,-0.663144,-0.052986
1.037044,-0.651147,0.264257
1.040492,-0.654090,0.257439
1.041676,-0.655101,0.249973
1.040587,-0.654172,0.241912
1.039458,-0.653208,0.233878
1.040532,-0.654125,0.226420
1.041572,-0.655012,0.218954
1.040328,-0.653950,0.210967
1.041295,-0.654776,0.203503
1.042227,-0.655571,0.196031
1.040118,-0.653771,0.187941
1.039473,-0.653221,0.180185
1.040297,-0.653923,0.172728
1.042593,-0.655883,0.165534
1.043348,-0.656528,0.158053
1.044823,-0.657787,0.150688
1.045509,-0.658372,0.143188
1.046159,-0.658928,0.135684
1.046775,-0.659453,0.128174
1.047356,-0.659949,0.120659
1.046386,-0.659122,0.112956
1.046896,-0.659557,0.105445
1.047371,-0.659962,0.097930
1.044776,-0.657747,0.090117
1.045179,-0.658091,0.082619
1.045547,-0.658405,0.075118
1.051956,-0.663875,0.068056
1.048457,-0.660889,0.060255
1.048721,-0.661114,0.052728
1.048950,-0.661309,0.045199
1.049143,-0.661474,0.037669
1.049301,-0.661609,0.030137
1.049424,-0.661714,0.022603
1.049512,-0.661789,0.015069
1.047283,-0.659887,0.007516
1.047301,-0.659902,0.000000
1.049565,-0.661834,-0.007535
1.050273,-0.662439,-0.015082
1.055508,-0.666907,-0.022751
1.055384,-0.666801,-0.030333
1.049903,-0.662123,-0.037699
1.055030,-0.666499,-0.045494
1.055560,-0.666952,-0.053115
1.035135,-0.652366,0.264044
1.036348,-0.653405,0.256611
1.041246,-0.657601,0.250174
1.038671,-0.655394,0.241717
1.039034,-0.655705,0.234067
1.040107,-0.656625,0.226603
1.041146,-0.657514,0.219131
1.039905,-0.656451,0.211138
1.039373,-0.655996,0.203338
1.040303,-0.656793,0.195872
1.040448,-0.656917,0.188246
1.039805,-0.656366,0.180478
1.040629,-0.657072,0.173010
1.039913,-0.656458,0.165265
1.040665,-0.657103,0.157796
1.041383,-0.657718,0.150320
1.043575,-0.659595,0.143072
1.044224,-0.660151,0.135573
1.044838,-0.660678,0.128070
1.043906,-0.659879,0.120365
1.042181,-0.658401,0.112588
1.042688,-0.658836,0.105102
1.043160,-0.659240,0.097611
1.043598,-0.659615,0.090117
1.047789,-0.663205,0.082956
1.048158,-0.663521,0.075425
1.044700,-0.660559,0.067614
1.043481,-0.659515,0.060010
1.043743,-0.659739,0.052513
1.043970,-0.659934,0.045015
1.048717,-0.664000,0.037699
1.048875,-0.664136,0.030161
1.048998,-0.664241,0.022622
1.049086,-0.664316,0.015082
1.049139,-0.664362,0.007541
1.049156,-0.664377,0.000000
1.046860,-0.662410,-0.007523
1.046808,-0.662365,-0.015045
1.051276,-0.666193,-0.022677
1.051912,-0.666737,-0.030259
1.054790,-0.669202,-0.037945
1.054595,-0.669036,-0.045531
1.054365,-0.668839,-0.053115
1.054100,-0.668612,-0.060697
1.036469,-0.656717,0.280455
1.035537,-0.655916,0.272343
1.039009,-0.658902,0.265535
1.040227,-0.659949,0.258061
1.041410,-0.660967,0.250576
1.040327,-0.660036,0.242497
1.041438,-0.660991,0.235012
1.037297,-0.657429,0.226237
1.036839,-0.657036,0.218423
1.037838,-0.657895,0.210967
1.038802,-0.658724,0.203503
1.039731,-0.659523,0.196031
1.040626,-0.660293,0.188552
1.041486,-0.661032,0.181065
1.044562,-0.663678,0.173994
1.043100,-0.662421,0.166073
1.043104,-0.662424,0.158438
1.043823,-0.663043,0.150932
1.043755,-0.662984,0.143305
1.044404,-0.663542,0.135794
1.045018,-0.664071,0.128278
1.045597,-0.664569,0.120757
1.045387,-0.664388,0.113140
1.046651,-0.665475,0.105702
1.046369,-0.665233,0.098089
1.047564,-0.666261,0.090632
1.047212,-0.665957,0.083023
1.048337,-0.666925,0.075547
1.048671,-0.667213,0.068001
1.048970,-0.667470,0.060451
1.049234,-0.667696,0.052900
1.049462,-0.667893,0.045346
1.047382,-0.666104,0.037699
1.047540,-0.666240,0.030161
1.046905,-0.665693,0.022603
1.046234,-0.665117,0.015057
1.046287,-0.665162,0.007529
1.049337,-0.667785,0.000000
1.045529,-0.664510,-0.007523
1.045476,-0.664465,-0.015045
1.048421,-0.666997,-0.022640
1.048298,-0.666892,-0.030186
1.048140,-0.666756,-0.037730
1.047947,-0.666590,-0.045273
1.049234,-0.667696,-0.052900
1.041423,-0.665096,0.282480
1.030169,-0.655366,0.271247
1.043975,-0.667303,0.267453
1.034098,-0.658763,0.256818
1.035273,-0.659779,0.249370
1.036413,-0.660765,0.241912
1.037519,-0.661721,0.234445
1.037102,-0.661360,0.226603
1.037392,-0.661611,0.218954
1.037646,-0.661830,0.211309
1.038609,-0.662663,0.203833
1.039538,-0.663466,0.196349
1.038937,-0.662947,0.188552
1.039795,-0.663688,0.181065
1.039120,-0.663105,0.173291
1.039907,-0.663785,0.165803
1.040659,-0.664436,0.158310
1.039124,-0.663108,0.150443
1.039805,-0.663697,0.142956
1.041955,-0.665556,0.135684
1.039558,-0.663484,0.127757
1.043145,-0.666585,0.120659
1.043687,-0.667054,0.113140
1.045703,-0.668796,0.105788
1.040898,-0.664642,0.097691
1.046615,-0.669585,0.090705
1.041735,-0.665366,0.082686
1.047387,-0.670252,0.075608
1.042433,-0.665969,0.067669
1.048018,-0.670798,0.060500
1.040724,-0.664492,0.052513
1.047754,-0.670570,0.045346
1.041142,-0.664853,0.037515
1.045836,-0.668911,0.030161
1.045202,-0.668363,0.022603
1.046046,-0.669093,0.015082
1.045342,-0.668484,0.007535
1.046116,-0.669153,0.000000
1.045342,-0.668484,-0.007535
1.046802,-0.669747,-0.015094
1.045202,-0.668363,-0.022603
1.046592,-0.669565,-0.030186
1.048703,-0.671390,-0.037822
1.049266,-0.671877,-0.045420
1.055839,-0.677560,-0.053372
1.032136,-0.659934,0.280004
1.033417,-0.661045,0.272562
1.034663,-0.662126,0.265109
1.035874,-0.663177,0.257647
1.037051,-0.664198,0.250174
1.038193,-0.665189,0.242692
1.039300,-0.666150,0.235201
1.040373,-0.667081,0.227702
1.041411,-0.667981,0.220193
1.037205,-0.664331,0.211480
1.036677,-0.663874,0.203668
1.037604,-0.664678,0.196190
1.037749,-0.664804,0.188552
1.038606,-0.665547,0.181065
1.038680,-0.665612,0.173432
1.039466,-0.666294,0.165938
1.040218,-0.666946,0.158438
1.040935,-0.667568,0.150932
1.036366,-0.663603,0.142607
1.037009,-0.664162,0.135132
1.037618,-0.664690,0.127653
1.047212,-0.673015,0.121345
1.047757,-0.673488,0.113783
1.048267,-0.673930,0.106217
1.048742,-0.674342,0.098647
1.044662,-0.670802,0.090632
1.044311,-0.670498,0.083023
1.044678,-0.670816,0.075486
1.045010,-0.671105,0.067945
1.045308,-0.671363,0.060402
1.044816,-0.670936,0.052814
1.045043,-0.671133,0.045273
1.045235,-0.671300,0.037730
1.045393,-0.671436,0.030186
1.045515,-0.671543,0.022640
1.044847,-0.670963,0.015082
1.044900,-0.671009,0.007541
1.046428,-0.672335,0.000000
1.046410,-0.672319,-0.007553
1.046358,-0.672274,-0.015106
1.050046,-0.675474,-0.022751
1.049923,-0.675368,-0.030333
1.049765,-0.675230,-0.037914
1.049572,-0.675063,-0.045494
1.050098,-0.675519,-0.053115
1.049834,-0.675290,-0.060697
1.031873,-0.662895,0.264683
1.036768,-0.667160,0.258268
1.037946,-0.668186,0.250777
1.035391,-0.665960,0.242302
1.032793,-0.663697,0.233878
1.033858,-0.664624,0.226420
1.033404,-0.664229,0.218600
1.032912,-0.663800,0.210796
1.036845,-0.667227,0.203998
1.034793,-0.665439,0.195872
1.035682,-0.666214,0.188399
1.040266,-0.670207,0.181652
1.041089,-0.670924,0.174135
1.035153,-0.665753,0.165400
1.035901,-0.666404,0.157924
1.036614,-0.667026,0.150443
1.037293,-0.667617,0.142956
1.040185,-0.670137,0.135794
1.040796,-0.670669,0.128278
1.041372,-0.671171,0.120757
1.041913,-0.671642,0.113232
1.042420,-0.672084,0.105702
1.039133,-0.669220,0.097770
1.038816,-0.668944,0.090190
1.043730,-0.673225,0.083091
1.044849,-0.674200,0.075608
1.039912,-0.669899,0.067669
1.045479,-0.674749,0.060500
1.046495,-0.675634,0.052986
1.046722,-0.675832,0.045420
1.046915,-0.676000,0.037853
1.047073,-0.676137,0.030284
1.047949,-0.676901,0.022732
1.045021,-0.674350,0.015106
1.045074,-0.674396,0.007553
1.043583,-0.673097,0.000000
1.045074,-0.674396,-0.007553
1.045021,-0.674350,-0.015106
1.042672,-0.672303,-0.022603
1.042550,-0.672197,-0.030137
1.041640,-0.671404,-0.037638
1.041448,-0.671237,-0.045162
1.041222,-0.671040,-0.052685
1.043973,-0.673437,-0.060402
1.023933,-0.658836,0.286050
1.025237,-0.659976,0.278654
1.025773,-0.660445,0.271028
1.027743,-0.662167,0.263831
1.037783,-0.670946,0.258889
1.038961,-0.671976,0.251381
1.038628,-0.671685,0.243473
1.039735,-0.672653,0.235958
1.040808,-0.673591,0.228434
1.035177,-0.668668,0.219308
1.033948,-0.667593,0.211309
1.036392,-0.669730,0.204162
1.037318,-0.670539,0.196666
1.035233,-0.668716,0.188552
1.036086,-0.669463,0.181065
1.039887,-0.672785,0.174135
1.037690,-0.670865,0.166073
1.038440,-0.671520,0.158567
1.042144,-0.674759,0.151544
1.042826,-0.675355,0.144002
1.041977,-0.674613,0.136235
1.042589,-0.675148,0.128694
1.043166,-0.675653,0.121149
1.043709,-0.676127,0.113599
1.041966,-0.674603,0.105788
1.040936,-0.673703,0.098089
1.039119,-0.672114,0.090337
1.041773,-0.674434,0.083023
1.042139,-0.674754,0.075486
1.043973,-0.676359,0.068056
1.044270,-0.676618,0.060500
1.044532,-0.676847,0.052943
1.043255,-0.675730,0.045310
1.041942,-0.674582,0.037699
1.039841,-0.672745,0.030088
1.039962,-0.672851,0.022567
1.040049,-0.672927,0.015045
1.042360,-0.674948,0.007541
1.042377,-0.674963,0.000000
1.043113,-0.675606,-0.007547
1.042307,-0.674902,-0.015082
1.042220,-0.674826,-0.022622
1.042099,-0.674719,-0.030161
1.042694,-0.675240,-0.037730
1.041750,-0.674415,-0.045236
1.041524,-0.674217,-0.052771
1.041263,-0.673988,-0.060304
1.041718,-0.674387,-0.067890
1.024961,-0.662570,0.286743
1.025534,-0.663072,0.279104
1.026804,-0.664187,0.271686
1.028774,-0.665916,0.264470
1.032183,-0.668907,0.257647
1.034827,-0.671227,0.250576
1.038914,-0.674813,0.243863
1.040021,-0.675785,0.236336
1.038138,-0.674132,0.228068
1.037693,-0.673742,0.220193
1.035729,-0.672018,0.211993
1.036689,-0.672861,0.204492
1.036131,-0.672371,0.196666
1.037764,-0.673804,0.189316
1.037876,-0.673902,0.181652
1.036464,-0.672663,0.173713
1.039482,-0.675312,0.166611
1.040233,-0.675971,0.159081
1.035728,-0.672017,0.150688
1.036405,-0.672612,0.143188
1.039289,-0.675143,0.136014
1.036162,-0.672398,0.127965
1.036734,-0.672901,0.120463
1.040267,-0.676000,0.113324
1.037776,-0.673815,0.105445
1.038245,-0.674226,0.097930
1.037930,-0.673950,0.090337
1.038329,-0.674300,0.082821
1.038694,-0.674620,0.075302
1.040525,-0.676227,0.067890
1.037067,-0.673192,0.060108
1.037327,-0.673420,0.052599
1.038303,-0.674277,0.045126
1.038494,-0.674445,0.037607
1.038650,-0.674582,0.030088
1.041026,-0.676666,0.022622
1.041865,-0.677402,0.015094
1.044924,-0.680086,0.007572
1.044941,-0.680102,0.000000
1.041917,-0.677448,-0.007547
1.041865,-0.677402,-0.015094
1.042529,-0.677985,-0.022659
1.040905,-0.676560,-0.030161
1.040748,-0.676422,-0.037699
1.042059,-0.677573,-0.045310
1.040331,-0.676056,-0.052771
1.040070,-0.675827,-0.060304
1.028002,-0.668126,0.280229
1.029275,-0.669247,0.272781
1.030514,-0.670338,0.265322
1.031719,-0.671399,0.257854
1.032889,-0.672429,0.250375
1.034025,-0.673429,0.242887
1.035126,-0.674399,0.235390
1.035455,-0.674689,0.227702
1.035009,-0.674296,0.219839
1.034525,-0.673870,0.211993
1.035484,-0.674715,0.204492
1.036408,-0.675529,0.196984
1.037298,-0.676312,0.189469
1.038153,-0.677065,0.181946
1.037488,-0.676479,0.174135
1.035298,-0.674551,0.166073
1.036045,-0.675209,0.158567
1.036758,-0.675837,0.151055
1.036691,-0.675777,0.143421
1.037334,-0.676344,0.135904
1.037943,-0.676880,0.128382
1.037770,-0.676727,0.120757
1.038308,-0.677202,0.113232
1.038812,-0.677646,0.105702
1.039282,-0.678059,0.098169
1.038968,-0.677783,0.090558
1.039368,-0.678135,0.083023
1.039733,-0.678456,0.075486
1.040063,-0.678747,0.067945
1.041858,-0.680327,0.060500
1.042119,-0.680557,0.052943
1.043095,-0.681417,0.045420
1.043287,-0.681586,0.037853
1.043444,-0.681724,0.030284
1.043566,-0.681832,0.022714
1.043653,-0.681908,0.015143
1.042955,-0.681294,0.007566
1.042972,-0.681309,0.000000
1.042955,-0.681294,-0.007566
1.042903,-0.681248,-0.015131
1.042815,-0.681171,-0.022695
1.042693,-0.681064,-0.030259
1.041787,-0.680265,-0.037791
1.041595,-0.680096,-0.045346
1.041369,-0.679897,-0.052900
1.041108,-0.679667,-0.060451
1.033409,-0.677046,0.274534
1.030995,-0.674909,0.265962
1.030734,-0.674679,0.258061
1.031903,-0.675713,0.250576
1.031568,-0.675417,0.242692
1.032666,-0.676388,0.235201
1.033729,-0.677330,0.227702
1.034021,-0.677588,0.220016
1.035015,-0.678468,0.212506
1.035974,-0.679317,0.204987
1.034681,-0.678172,0.196984
1.034829,-0.678303,0.189316
1.034940,-0.678402,0.181652
1.036499,-0.679781,0.174276
1.037282,-0.680475,0.166745
1.035804,-0.679166,0.158824
1.036516,-0.679796,0.151300
1.037194,-0.680396,0.143770
1.037093,-0.680307,0.136124
1.038446,-0.681505,0.128694
1.038274,-0.681353,0.121051
1.037322,-0.680510,0.113324
1.039317,-0.682276,0.105960
1.036801,-0.680049,0.098089
1.037235,-0.680433,0.090558
1.037633,-0.680786,0.083023
1.037998,-0.681108,0.075486
1.038327,-0.681400,0.067945
1.038622,-0.681661,0.060402
1.037386,-0.680566,0.052771
1.037611,-0.680766,0.045236
1.037802,-0.680934,0.037699
1.038706,-0.681735,0.030186
1.040325,-0.683168,0.022677
1.041160,-0.683908,0.015131
1.041212,-0.683954,0.007566
1.043476,-0.685957,0.000000
1.043459,-0.685942,-0.007584
1.044155,-0.686559,-0.015180
1.044068,-0.686481,-0.022769
1.043946,-0.686373,-0.030358
1.037053,-0.680272,-0.037669
1.036863,-0.680103,-0.045199
1.036638,-0.679904,-0.052728
1.040118,-0.682985,-0.060500
1.027193,-0.674200,0.273000
1.024775,-0.672054,0.264470
1.025972,-0.673116,0.257025
1.029331,-0.676100,0.250174
1.028262,-0.675150,0.242107
1.030824,-0.677425,0.235012
1.032620,-0.679020,0.227702
1.035119,-0.681240,0.220547
1.033903,-0.680160,0.212506
1.034861,-0.681011,0.204987
1.035784,-0.681831,0.197461
1.033717,-0.679995,0.189316
1.031610,-0.678124,0.181212
1.032424,-0.678847,0.173713
1.036168,-0.682171,0.166745
1.036915,-0.682835,0.159209
1.037628,-0.683469,0.151667
1.038307,-0.684071,0.144119
1.033749,-0.680023,0.135794
1.032124,-0.678580,0.127965
1.034926,-0.681068,0.120757
1.033229,-0.679561,0.112956
1.033730,-0.680006,0.105445
1.038668,-0.684392,0.098408
1.039103,-0.684778,0.090852
1.039502,-0.685133,0.083293
1.039867,-0.685457,0.075731
1.037211,-0.683098,0.067945
1.037505,-0.683359,0.060402
1.037765,-0.683590,0.052857
1.037990,-0.683790,0.045310
1.037433,-0.683295,0.037730
1.039084,-0.684761,0.030235
1.039205,-0.684869,0.022677
1.042283,-0.687602,0.015168
1.042335,-0.687648,0.007584
1.042352,-0.687664,0.000000
1.040840,-0.686320,-0.007572
1.040787,-0.686274,-0.015143
1.039953,-0.685533,-0.022695
1.037589,-0.683434,-0.030186
1.037433,-0.683295,-0.037730
1.034254,-0.680472,-0.045126
1.034030,-0.680273,-0.052642
1.036758,-0.682696,-0.060353
1.028750,-0.678858,0.273877
1.027800,-0.678011,0.265749
1.029000,-0.679081,0.258268
1.030165,-0.680120,0.250777
1.028368,-0.678518,0.242497
1.029462,-0.679493,0.235012
1.030521,-0.680437,0.227519
1.029342,-0.679386,0.219485
1.030330,-0.680267,0.211993
1.030548,-0.680461,0.204327
1.031466,-0.681280,0.196825
1.032350,-0.682068,0.189316
1.032462,-0.682168,0.181652
1.033277,-0.682894,0.174135
1.031098,-0.680952,0.166073
1.033322,-0.682935,0.158824
1.034032,-0.683568,0.151300
1.031743,-0.681527,0.143305
1.030156,-0.680112,0.135463
1.032987,-0.682636,0.128278
1.031328,-0.681157,0.120463
1.031863,-0.681634,0.112956
1.034594,-0.684069,0.105702
1.035061,-0.684485,0.098169
1.034749,-0.684207,0.090558
1.035146,-0.684562,0.083023
1.035509,-0.684885,0.075486
1.035838,-0.685178,0.067945
1.036132,-0.685440,0.060402
1.035645,-0.685006,0.052814
1.037361,-0.686537,0.045346
1.036060,-0.685376,0.037730
1.036215,-0.685515,0.030186
1.037829,-0.686954,0.022677
1.037915,-0.687031,0.015119
1.035728,-0.685081,0.007541
1.038731,-0.687758,0.000000
1.035728,-0.685081,-0.007541
1.034930,-0.684369,-0.015069
1.035590,-0.684957,-0.022622
1.038454,-0.687511,-0.030259
1.038298,-0.687372,-0.037822
1.039599,-0.688532,-0.045457
1.042356,-0.690991,-0.053201
1.026822,-0.680024,0.273657
1.027328,-0.680477,0.265962
1.028527,-0.681550,0.258475
1.029692,-0.682593,0.250979
1.030822,-0.683604,0.243473
1.023137,-0.676727,0.233689
1.024189,-0.677668,0.226237
1.025206,-0.678579,0.218777
1.026189,-0.679458,0.211309
1.027139,-0.680308,0.203833
1.027318,-0.680468,0.196190
1.028198,-0.681256,0.188705
1.029043,-0.682012,0.181212
1.031330,-0.684059,0.173994
1.033586,-0.686077,0.166745
1.034331,-0.686744,0.159209
1.033562,-0.686056,0.151422
1.034238,-0.686661,0.143886
1.034137,-0.686571,0.136235
1.032520,-0.685123,0.128382
1.035314,-0.687624,0.121149
1.036593,-0.688769,0.113691
1.037838,-0.689883,0.106217
1.038306,-0.690302,0.098647
1.038740,-0.690690,0.091073
1.039139,-0.691047,0.083496
1.036529,-0.688711,0.075670
1.036857,-0.689005,0.068111
1.037151,-0.689268,0.060550
1.037411,-0.689501,0.052986
1.033913,-0.686370,0.045236
1.037826,-0.689872,0.037853
1.035747,-0.688012,0.030210
1.034378,-0.686786,0.022622
1.035209,-0.687530,0.015094
1.036006,-0.688243,0.007553
1.036023,-0.688259,0.000000
1.035261,-0.687577,-0.007547
1.035954,-0.688197,-0.015106
1.036613,-0.688787,-0.022677
1.035747,-0.688012,-0.030210
1.036337,-0.688539,-0.037791
1.036891,-0.689035,-0.045383
1.025604,-0.681860,0.273657
1.023928,-0.680356,0.265322
1.025123,-0.681428,0.257854
1.026283,-0.682470,0.250375
1.026679,-0.682826,0.242692
1.026308,-0.682493,0.234823
1.026632,-0.682784,0.227152
1.026920,-0.683042,0.219485
1.028637,-0.684585,0.212164
1.028855,-0.684780,0.204492
1.030506,-0.686263,0.197143
1.030654,-0.686396,0.189469
1.032973,-0.688479,0.182239
1.034525,-0.689872,0.174838
1.035305,-0.690574,0.167284
1.033100,-0.688593,0.159209
1.031595,-0.687241,0.151300
1.031530,-0.687182,0.143654
1.030689,-0.686428,0.135904
1.032772,-0.688299,0.128590
1.033342,-0.688810,0.121051
1.033877,-0.689291,0.113508
1.035120,-0.690407,0.106045
1.035587,-0.690826,0.098487
1.032309,-0.687882,0.090558
1.032705,-0.688238,0.083023
1.033067,-0.688563,0.075486
1.033394,-0.688857,0.067945
1.036660,-0.691790,0.060599
1.036919,-0.692023,0.053029
1.037144,-0.692225,0.045457
1.037334,-0.692396,0.037883
1.033027,-0.688527,0.030161
1.033148,-0.688636,0.022622
1.035466,-0.690717,0.015119
1.039237,-0.694105,0.007590
1.037023,-0.692116,0.000000
1.037005,-0.692100,-0.007572
1.035466,-0.690717,-0.015119
1.036867,-0.691976,-0.022714
1.034515,-0.689863,-0.030210
1.034360,-0.689724,-0.037761
1.045322,-0.699570,-0.045862
1.026353,-0.685435,0.266388
1.027550,-0.686514,0.258889
1.021437,-0.681003,0.249370
1.023285,-0.682669,0.242107
1.024371,-0.683648,0.234634
1.025424,-0.684597,0.227152
1.026442,-0.685515,0.219662
1.027426,-0.686402,0.212164
1.027643,-0.686597,0.204492
1.024891,-0.684117,0.196190
1.025034,-0.684246,0.188552
1.025142,-0.684343,0.180919
1.023743,-0.683082,0.173010
1.023779,-0.683114,0.165400
1.023779,-0.683114,0.157796
1.024481,-0.683747,0.150320
1.025149,-0.684349,0.142839
1.027998,-0.686917,0.135684
1.032293,-0.690788,0.128694
1.032863,-0.691302,0.121149
1.029699,-0.688450,0.113140
1.030198,-0.688900,0.105616
1.029181,-0.687983,0.097930
1.028129,-0.687035,0.090264
1.030005,-0.688726,0.082889
1.030366,-0.689051,0.075363
1.030692,-0.689345,0.067835
1.029500,-0.688271,0.060206
1.034953,-0.693185,0.052986
1.035177,-0.693387,0.045420
1.035367,-0.693558,0.037853
1.029581,-0.688344,0.030088
1.038613,-0.696485,0.022788
1.034986,-0.693216,0.015131
1.029838,-0.688576,0.007523
1.031341,-0.689930,0.000000
1.035038,-0.693262,-0.007566
1.034986,-0.693216,-0.015131
1.034900,-0.693138,-0.022695
1.037750,-0.695706,-0.030358
1.038336,-0.696235,-0.037975
1.038146,-0.696064,-0.045567
1.025309,-0.688731,0.266601
1.025779,-0.689157,0.258889
1.026214,-0.689550,0.251180
1.027339,-0.690569,0.243668
1.027702,-0.690898,0.235958
1.026572,-0.689875,0.227885
1.027591,-0.690798,0.220370
1.026386,-0.689706,0.212335
1.026603,-0.689903,0.204657
1.019468,-0.683439,0.195396
1.020340,-0.684228,0.187941
1.019712,-0.683659,0.180185
1.020514,-0.684386,0.172728
1.022751,-0.686413,0.165534
1.026427,-0.689743,0.158567
1.022717,-0.686382,0.150320
1.027800,-0.690987,0.143537
1.028436,-0.691563,0.136014
1.026089,-0.689437,0.128070
1.026654,-0.689949,0.120561
1.030137,-0.693105,0.113416
1.028421,-0.691550,0.105616
1.031100,-0.693977,0.098328
1.031530,-0.694367,0.090779
1.031926,-0.694725,0.083226
1.035985,-0.698403,0.075976
1.036314,-0.698700,0.068387
1.036607,-0.698966,0.060795
1.035386,-0.697860,0.053115
1.034129,-0.696721,0.045457
1.033578,-0.696222,0.037853
1.033733,-0.696362,0.030284
1.031630,-0.694457,0.022659
1.033939,-0.696549,0.015143
1.033991,-0.696596,0.007572
1.032526,-0.695269,0.000000
1.030285,-0.693239,-0.007541
1.032457,-0.695206,-0.015119
1.032371,-0.695128,-0.022677
1.032251,-0.695019,-0.030235
1.036541,-0.698906,-0.037975
1.038572,-0.700747,-0.045678
1.020080,-0.686644,0.273219
1.019135,-0.685785,0.265109
1.020322,-0.686864,0.257647
1.021475,-0.687911,0.250174
1.022594,-0.688928,0.242692
1.023679,-0.689915,0.235201
1.026912,-0.692854,0.228251
1.025746,-0.691794,0.220193
1.023813,-0.690037,0.211993
1.026948,-0.692886,0.204987
1.025670,-0.691724,0.196984
1.026547,-0.692522,0.189469
1.028854,-0.694619,0.182239
1.029665,-0.695356,0.174698
1.028974,-0.694728,0.166880
1.031183,-0.696735,0.159595
1.030421,-0.696043,0.151789
1.024479,-0.690642,0.143188
1.031731,-0.697234,0.136676
1.025711,-0.691762,0.128174
1.026276,-0.692275,0.120659
1.027543,-0.693427,0.113232
1.029515,-0.695219,0.105874
1.029978,-0.695641,0.098328
1.032622,-0.698043,0.090999
1.033018,-0.698403,0.083428
1.034118,-0.699403,0.075915
1.033707,-0.699029,0.068277
1.028826,-0.694593,0.060353
1.029083,-0.694826,0.052814
1.033742,-0.699062,0.045494
1.029494,-0.695200,0.037730
1.034087,-0.699375,0.030333
1.034207,-0.699484,0.022751
1.029114,-0.694855,0.015082
1.026205,-0.692211,0.007516
1.029182,-0.694917,0.000000
1.029165,-0.694901,-0.007541
1.030593,-0.696200,-0.015106
1.030508,-0.696122,-0.022659
1.035566,-0.700720,-0.030382
1.036151,-0.701251,-0.038006
1.019937,-0.689783,0.265749
1.021124,-0.690866,0.258268
1.020107,-0.689938,0.250174
1.021224,-0.690957,0.242692
1.022307,-0.691946,0.235201
1.023356,-0.692903,0.227702
1.023644,-0.693166,0.220016
1.020985,-0.690739,0.211651
1.025570,-0.694924,0.204987
1.022836,-0.692428,0.196666
1.023710,-0.693226,0.189163
1.028204,-0.697327,0.182386
1.029014,-0.698066,0.174838
1.026129,-0.695434,0.166611
1.026867,-0.696107,0.159081
1.027571,-0.696750,0.151544
1.028241,-0.697361,0.144002
1.028876,-0.697941,0.136455
1.027274,-0.696478,0.128590
1.027840,-0.696994,0.121051
1.028371,-0.697480,0.113508
1.028869,-0.697933,0.105960
1.029332,-0.698356,0.098408
1.029761,-0.698748,0.090852
1.030155,-0.699108,0.083293
1.030516,-0.699436,0.075731
1.030842,-0.699734,0.068166
1.026707,-0.695961,0.060304
1.026963,-0.696195,0.052771
1.028661,-0.697745,0.045310
1.028850,-0.697916,0.037761
1.029004,-0.698057,0.030210
1.029124,-0.698166,0.022659
1.030686,-0.699592,0.015131
1.030738,-0.699639,0.007566
1.032232,-0.701003,0.000000
1.032215,-0.700987,-0.007578
1.032164,-0.700940,-0.015155
1.032078,-0.700862,-0.022732
1.036388,-0.704796,-0.030456
1.037710,-0.706001,-0.038129
1.023760,-0.696203,0.267240
1.017016,-0.690027,0.257439
1.018164,-0.691078,0.249973
1.019278,-0.692098,0.242497
1.020358,-0.693088,0.235012
1.021405,-0.694046,0.227519
1.022418,-0.694974,0.220016
1.024849,-0.697201,0.212848
1.025795,-0.698067,0.205317
1.025251,-0.697569,0.197461
1.026128,-0.698371,0.189927
1.026970,-0.699143,0.182386
1.024128,-0.696540,0.174135
1.021245,-0.693900,0.165938
