1.244520,-0.780591,0.071639
1.240961,-0.777703,0.062475
1.241237,-0.777928,0.053555
1.245352,-0.781266,0.044785
1.245544,-0.781422,0.035830
1.245693,-0.781543,0.026874
1.234171,-0.775527,0.097794
1.234615,-0.775889,0.088915
1.235017,-0.776216,0.080033
1.234602,-0.775879,0.071099
1.235694,-0.776768,0.062260
1.236744,-0.777623,0.053407
1.237752,-0.778444,0.044540
1.241818,-0.781755,0.035757
1.241967,-0.781877,0.026819
1.235072,-0.779565,0.124835
1.235644,-0.780033,0.115938
1.226135,-0.772261,0.106080
1.226618,-0.772656,0.097254
1.234788,-0.779333,0.089038
1.235549,-0.779955,0.071246
1.235867,-0.780215,0.062346
1.236142,-0.780439,0.053444
1.235600,-0.779997,0.044509
1.235791,-0.780153,0.035609
1.235939,-0.780274,0.026708
1.226743,-0.776087,0.124063
1.227310,-0.776552,0.115221
1.227836,-0.776983,0.106374
1.228320,-0.777380,0.097524
1.228761,-0.777742,0.088670
1.231477,-0.779970,0.079978
1.232607,-0.780897,0.071148
1.232924,-0.781157,0.062260
1.232426,-0.780748,0.053334
1.233430,-0.781572,0.044478
1.233620,-0.781728,0.035585
1.239179,-0.786288,0.026819
1.229370,-0.783019,0.124578
1.219941,-0.775243,0.114663
1.220463,-0.775674,0.105859
1.220943,-0.776070,0.097052
1.222922,-0.777701,0.088363
1.225630,-0.779935,0.079702
1.228298,-0.782135,0.071001
1.231697,-0.784937,0.062303
1.230429,-0.783892,0.053334
1.230660,-0.784082,0.044448
1.230850,-0.784239,0.035560
1.232540,-0.785632,0.026708
1.225292,-0.782716,0.142125
1.223641,-0.781351,0.132992
1.221178,-0.779313,0.123806
1.213294,-0.772790,0.114105
1.213813,-0.773220,0.105344
1.212753,-0.772342,0.096445
1.213188,-0.772703,0.087689
1.219736,-0.778120,0.079371
1.221630,-0.779687,0.070657
1.221943,-0.779946,0.061831
1.226064,-0.783356,0.053186
1.226295,-0.783546,0.044325
1.229565,-0.786251,0.035560
1.232793,-0.788923,0.026745
1.219218,-0.781395,0.150456
1.217611,-0.780060,0.141341
1.216726,-0.779324,0.132349
1.217330,-0.779826,0.123548
1.217125,-0.779656,0.114663
1.217646,-0.780089,0.105859
1.211217,-0.774749,0.096445
1.212420,-0.775747,0.087750
1.218957,-0.781178,0.079426
1.220080,-0.782111,0.070657
1.220392,-0.782370,0.061831
1.220663,-0.782595,0.053002
1.226463,-0.787413,0.035511
1.226610,-0.787535,0.026635
1.214763,-0.781028,0.150039
1.215449,-0.781600,0.141243
1.216094,-0.782138,0.132441
1.215932,-0.782003,0.123548
1.220322,-0.785662,0.115141
1.216726,-0.782664,0.097052
1.217163,-0.783028,0.088241
1.219859,-0.785276,0.079592
1.220213,-0.785571,0.070756
1.222060,-0.787111,0.062003
1.222332,-0.787338,0.053150
1.222561,-0.787529,0.044294
1.222749,-0.787686,0.035438
1.222895,-0.787808,0.026579
1.214179,-0.783841,0.159051
1.214906,-0.784449,0.150248
1.214830,-0.784385,0.141341
1.216238,-0.785563,0.132625
1.216841,-0.786068,0.123806
1.216638,-0.785899,0.114902
1.217158,-0.786334,0.106080
1.216543,-0.785819,0.088302
1.218469,-0.787430,0.079592
1.219135,-0.787988,0.061917
1.215573,-0.785007,0.052892
1.215802,-0.785198,0.044080
1.215988,-0.785355,0.035266
1.216133,-0.785476,0.026450
1.213678,-0.788243,0.159271
1.211361,-0.786294,0.150039
1.210521,-0.785588,0.141047
1.211163,-0.786128,0.132257
1.213288,-0.787915,0.123634
1.213848,-0.788386,0.114822
1.213604,-0.788181,0.105933
1.222479,-0.795646,0.097861
1.214516,-0.788948,0.088302
1.214910,-0.789279,0.079481
1.219084,-0.792790,0.070903
1.219396,-0.793053,0.062046
1.214313,-0.788777,0.052929
1.214541,-0.788969,0.044110
1.214728,-0.789126,0.035290
1.214872,-0.789248,0.026469
1.218037,-0.791910,0.017696
1.219630,-0.793249,0.008860
1.203082,-0.782823,0.166801
1.203843,-0.783466,0.158059
1.204564,-0.784074,0.149310
1.206004,-0.785290,0.140655
1.208164,-0.787114,0.132073
1.208763,-0.787620,0.123291
1.209320,-0.788090,0.114504
1.210599,-0.789169,0.105786
1.212599,-0.790858,0.097119
1.211508,-0.789937,0.088179
1.213427,-0.791557,0.079481
1.213778,-0.791854,0.070657
1.218669,-0.795984,0.062089
1.212831,-0.791054,0.052929
1.214586,-0.792536,0.044172
1.213245,-0.791404,0.035290
1.214154,-0.792171,0.026487
1.214257,-0.792258,0.017659
1.215083,-0.792956,0.008836
1.211374,-0.793559,0.168313
1.191671,-0.776856,0.156516
1.206039,-0.789037,0.149727
1.206720,-0.789613,0.140949
1.207359,-0.790155,0.132165
1.207957,-0.790662,0.123377
1.208514,-0.791134,0.114583
1.206747,-0.789637,0.105565
1.207221,-0.790038,0.096782
1.206131,-0.789114,0.087873
1.206521,-0.789445,0.079095
1.206871,-0.789741,0.070314
1.210228,-0.792587,0.061702
1.205160,-0.788291,0.052634
1.205386,-0.788482,0.043865
1.205571,-0.788639,0.035094
1.205714,-0.788761,0.026322
1.205817,-0.788848,0.017548
1.215032,-0.796660,0.008848
1.200092,-0.787294,0.175659
1.195597,-0.783470,0.166103
1.196353,-0.784113,0.157397
1.197068,-0.784722,0.148686
1.203048,-0.789810,0.140655
1.203685,-0.790352,0.131889
1.204281,-0.790859,0.123119
1.202558,-0.789393,0.114105
1.203071,-0.789829,0.105344
1.203543,-0.790231,0.096580
1.207775,-0.793831,0.088118
1.208166,-0.794164,0.079316
1.208516,-0.794462,0.070510
1.208825,-0.794725,0.061702
1.206810,-0.793010,0.052782
1.204752,-0.791259,0.043896
1.207221,-0.793360,0.035192
1.210411,-0.796073,0.026469
1.210514,-0.796161,0.017646
1.197087,-0.788079,0.184266
1.194908,-0.786218,0.175047
1.194949,-0.786253,0.166219
1.195704,-0.786898,0.157508
1.196419,-0.787508,0.148790
1.200120,-0.790668,0.140459
1.206207,-0.795866,0.105786
1.205921,-0.795622,0.096917
1.206353,-0.795990,0.088118
1.205225,-0.795027,0.079205
1.205574,-0.795325,0.070412
1.202083,-0.792345,0.061402
1.202349,-0.792572,0.052634
1.201814,-0.792115,0.043834
1.201998,-0.792272,0.035069
1.202142,-0.792394,0.026303
1.202244,-0.792482,0.017536
1.205347,-0.795132,0.008793
1.206889,-0.796448,0.000000
1.192663,-0.787638,0.183752
1.188224,-0.783833,0.174190
1.180719,-0.777402,0.164242
1.181465,-0.778041,0.155634
1.182170,-0.778645,0.147020
1.188880,-0.784396,0.139184
1.194045,-0.788822,0.131062
1.194635,-0.789328,0.122347
1.201997,-0.795636,0.114344
1.197209,-0.791533,0.105050
1.202981,-0.796479,0.096782
1.205685,-0.798797,0.088179
1.205317,-0.798482,0.079316
1.205666,-0.798781,0.070510
1.205974,-0.799045,0.061702
1.203965,-0.797323,0.052782
1.204190,-0.797516,0.043988
1.204375,-0.797674,0.035192
1.201481,-0.795194,0.026322
1.203102,-0.796583,0.017573
1.206201,-0.799239,0.008811
1.206221,-0.799256,0.000000
1.190395,-0.788992,0.192450
1.191270,-0.789744,0.183752
1.190599,-0.789168,0.174802
1.191392,-0.789850,0.166103
1.192145,-0.790497,0.157397
1.192857,-0.791109,0.148686
1.189755,-0.788442,0.139478
1.190384,-0.788983,0.130786
1.194749,-0.792737,0.122519
1.194543,-0.792560,0.113707
1.194296,-0.792347,0.104903
1.194763,-0.792749,0.096175
1.195947,-0.793767,0.087505
1.196334,-0.794100,0.078764
1.199709,-0.797002,0.070216
1.200015,-0.797266,0.061445
1.201796,-0.798797,0.052745
1.201263,-0.798339,0.043926
1.201447,-0.798497,0.035143
1.204622,-0.801228,0.026432
1.204725,-0.801316,0.017622
1.204786,-0.801369,0.008811
1.205565,-0.802039,0.000000
1.187163,-0.789917,0.201001
1.188076,-0.790706,0.192316
1.188949,-0.791460,0.183624
1.189781,-0.792178,0.174925
1.189822,-0.792213,0.166103
1.192830,-0.794811,0.157728
1.185175,-0.788201,0.139086
1.185801,-0.788741,0.130419
1.175829,-0.780131,0.120545
1.176369,-0.780597,0.111954
1.176869,-0.781029,0.103358
1.186391,-0.789251,0.095568
1.193614,-0.795488,0.087443
1.197778,-0.799083,0.078984
1.201148,-0.801994,0.070412
1.201455,-0.802258,0.061616
1.201721,-0.802488,0.052818
1.200432,-0.801376,0.043957
1.200616,-0.801534,0.035168
1.198489,-0.799697,0.026322
1.198591,-0.799785,0.017548
1.200922,-0.801799,0.008793
1.203213,-0.803777,0.000000
1.185873,-0.793620,0.201141
1.186785,-0.794411,0.192450
1.182414,-0.790617,0.182853
1.180992,-0.789384,0.173823
1.184028,-0.792019,0.165521
1.186276,-0.793970,0.157067
1.186984,-0.794584,0.148373
1.188278,-0.795708,0.130970
1.181341,-0.789686,0.121403
1.181883,-0.790157,0.112751
1.174854,-0.784056,0.103358
1.182848,-0.790994,0.095433
1.183270,-0.791361,0.086769
1.184406,-0.792347,0.078156
1.184748,-0.792644,0.069480
1.189577,-0.796835,0.061058
1.191349,-0.798373,0.052413
1.191572,-0.798566,0.043681
1.191754,-0.798725,0.034947
1.194161,-0.800814,0.026266
1.194262,-0.800902,0.017511
1.194323,-0.800955,0.008756
1.195099,-0.801628,0.000000
1.196589,-0.802921,-0.008774
1.182755,-0.794262,0.209678
1.183704,-0.795090,0.201001
1.182373,-0.793930,0.191912
1.183241,-0.794686,0.183238
1.181075,-0.792799,0.174068
1.184856,-0.796093,0.165870
1.185603,-0.796744,0.157177
1.186310,-0.797360,0.148477
1.186977,-0.797940,0.139772
1.187604,-0.798486,0.131062
1.182180,-0.793761,0.121661
1.182723,-0.794234,0.112990
1.180218,-0.792052,0.104020
1.180679,-0.792454,0.095366
1.181100,-0.792821,0.086708
1.179975,-0.791841,0.077936
1.180316,-0.792138,0.069284
1.182123,-0.793712,0.060715
1.180877,-0.792626,0.051972
1.192402,-0.802666,0.043773
1.192585,-0.802825,0.035020
1.191972,-0.802292,0.026248
1.191320,-0.801723,0.017487
1.192134,-0.802433,0.008750
1.192155,-0.802451,0.000000
1.192134,-0.802433,-0.008750
1.183614,-0.798742,0.201282
1.179303,-0.794971,0.191643
1.180168,-0.795727,0.182981
1.180993,-0.796449,0.174313
1.181778,-0.797136,0.165638
1.182523,-0.797787,0.156956
1.183228,-0.798404,0.148269
1.179398,-0.795054,0.138988
1.177771,-0.793631,0.130051
1.178352,-0.794139,0.121403
1.178893,-0.794612,0.112751
1.175640,-0.791767,0.103726
1.176099,-0.792169,0.095096
1.169006,-0.785964,0.085849
1.169382,-0.786294,0.077273
1.169719,-0.786589,0.068695
1.169265,-0.786191,0.060071
1.186071,-0.800890,0.052303
1.190054,-0.804374,0.043742
1.190236,-0.804533,0.034996
1.188120,-0.802682,0.026193
1.188220,-0.802770,0.017462
1.188281,-0.802823,0.008731
1.188301,-0.802841,0.000000
1.188281,-0.802823,-0.008731
1.172820,-0.792638,0.217125
1.173801,-0.793500,0.208504
1.174743,-0.794326,0.199875
1.177879,-0.797079,0.191643
1.178742,-0.797837,0.182981
1.179566,-0.798560,0.174313
1.180350,-0.799248,0.165638
1.178106,-0.797279,0.156516
1.178808,-0.797895,0.147853
1.181713,-0.800445,0.139478
1.182336,-0.800992,0.130786
1.179924,-0.798875,0.121746
1.180466,-0.799350,0.113069
1.177220,-0.796501,0.104020
1.176930,-0.796246,0.095298
1.177349,-0.796614,0.086646
1.177729,-0.796948,0.077991
1.178068,-0.797246,0.069333
1.180621,-0.799486,0.060801
1.180881,-0.799715,0.052119
1.183536,-0.802045,0.034824
1.181422,-0.800189,0.026064
1.183776,-0.802256,0.017413
1.173642,-0.796670,0.217583
1.174624,-0.797535,0.208944
1.169623,-0.793129,0.199172
1.170520,-0.793919,0.190566
1.175842,-0.798608,0.182724
1.179643,-0.801956,0.174558
1.177445,-0.800020,0.165405
1.178187,-0.800673,0.156736
1.179635,-0.801949,0.148165
1.180297,-0.802532,0.139478
1.180919,-0.803080,0.130786
1.181501,-0.803593,0.122090
1.182043,-0.804071,0.113388
1.183007,-0.804920,0.095973
1.176689,-0.799353,0.086708
1.177068,-0.799688,0.078046
1.174409,-0.797346,0.069185
1.174708,-0.797609,0.060543
1.178716,-0.801140,0.052082
1.178936,-0.801333,0.043405
1.179116,-0.801492,0.034726
1.183757,-0.805580,0.026156
1.183858,-0.805669,0.017438
1.187670,-0.809027,0.008750
1.186189,-0.807723,0.000000
1.187670,-0.809027,-0.008750
1.170455,-0.797212,0.226055
1.167772,-0.794840,0.216666
1.167266,-0.794393,0.207770
1.168944,-0.795876,0.199313
1.169098,-0.796012,0.190566
1.169954,-0.796769,0.181953
1.170771,-0.797491,0.173334
1.172292,-0.798836,0.164824
1.172285,-0.798830,0.156075
1.172982,-0.799447,0.147436
1.173640,-0.800028,0.138792
1.174258,-0.800575,0.130143
1.174837,-0.801086,0.121489
1.175375,-0.801562,0.112830
1.175874,-0.802003,0.104167
1.176333,-0.802409,0.095501
1.176752,-0.802779,0.086830
1.174887,-0.801131,0.077991
1.175226,-0.801430,0.069333
1.166543,-0.793753,0.060156
1.168297,-0.795304,0.051641
1.176003,-0.802117,0.043343
1.177680,-0.803600,0.034726
1.177820,-0.803723,0.026046
1.177920,-0.803812,0.017364
1.177979,-0.803864,0.008682
1.180247,-0.805869,0.000000
1.180227,-0.805852,-0.008701
1.180167,-0.805798,-0.017401
1.161307,-0.793880,0.215750
1.162277,-0.794742,0.207183
1.163208,-0.795569,0.198609
1.164099,-0.796361,0.190028
1.163468,-0.795800,0.181182
1.162054,-0.794543,0.172232
1.162825,-0.795228,0.163660
1.168756,-0.800499,0.155854
1.169451,-0.801117,0.147228
1.170851,-0.802360,0.138694
1.172955,-0.804231,0.130235
1.173533,-0.804744,0.121575
1.174071,-0.805222,0.112910
1.177551,-0.808314,0.104535
1.174281,-0.805409,0.095501
1.174699,-0.805781,0.086830
1.175078,-0.806117,0.078156
1.179149,-0.809735,0.069725
1.172986,-0.804258,0.051972
1.170216,-0.801796,0.043190
1.170394,-0.801955,0.034554
1.169785,-0.801414,0.025898
1.170632,-0.802166,0.017278
1.173681,-0.804876,0.008664
1.173701,-0.804894,0.000000
1.173681,-0.804876,-0.008664
1.181096,-0.811465,-0.017450
1.164895,-0.800137,0.225579
1.156319,-0.792491,0.214986
1.154330,-0.790718,0.205863
1.155254,-0.791541,0.197344
1.156138,-0.792329,0.188817
1.154763,-0.791103,0.179897
1.155567,-0.791820,0.171375
1.158556,-0.794486,0.163195
1.159284,-0.795135,0.154642
1.159973,-0.795749,0.146083
1.162108,-0.797652,0.137714
1.167922,-0.802836,0.129775
1.168496,-0.803348,0.121146
1.166055,-0.801172,0.112193
1.166549,-0.801612,0.103579
1.167004,-0.802017,0.094961
1.167419,-0.802388,0.086340
1.176738,-0.810696,0.078377
1.177077,-0.810999,0.069676
1.174393,-0.808606,0.060801
1.174652,-0.808836,0.052119
1.165918,-0.801049,0.043067
1.166096,-0.801208,0.034456
1.158771,-0.794677,0.025659
1.158869,-0.794764,0.017107
1.158928,-0.794817,0.008553
1.174622,-0.808809,0.000000
1.174602,-0.808792,-0.008682
1.157475,-0.797271,0.241911
1.158561,-0.798243,0.233352
1.156666,-0.796547,0.224149
1.159144,-0.798765,0.215902
1.158637,-0.798311,0.207037
1.156613,-0.796500,0.197906
1.157499,-0.797292,0.189355
1.158345,-0.798050,0.180797
1.156933,-0.796786,0.171865
1.159920,-0.799459,0.163660
1.160648,-0.800111,0.155083
1.168748,-0.807362,0.147540
1.170018,-0.808499,0.130235
1.165397,-0.804363,0.120974
1.164445,-0.803510,0.112193
1.164938,-0.803952,0.103579
1.165392,-0.804358,0.094961
1.165806,-0.804729,0.086340
1.168413,-0.807063,0.077880
1.168749,-0.807364,0.069234
1.166813,-0.805630,0.060457
1.171537,-0.809859,0.052045
1.171755,-0.810055,0.043374
1.168954,-0.807547,0.034603
1.169093,-0.807671,0.025953
1.169192,-0.807760,0.017303
1.164036,-0.803144,0.008609
1.164055,-0.803162,0.000000
1.164036,-0.803144,-0.008609
1.172917,-0.811094,-0.017364
1.156797,-0.799973,0.242082
1.157149,-0.800289,0.233352
1.155256,-0.798589,0.224149
1.155525,-0.798831,0.215444
1.156489,-0.799696,0.206890
1.157413,-0.800527,0.198328
1.153139,-0.796687,0.188817
1.153982,-0.797444,0.180283
1.155523,-0.798829,0.171865
1.156288,-0.799516,0.163311
1.156275,-0.799504,0.154642
1.156961,-0.800121,0.146083
1.158349,-0.801368,0.137616
1.161180,-0.803911,0.129316
1.161750,-0.804423,0.120717
1.163765,-0.806233,0.112273
1.164257,-0.806676,0.103652
1.164711,-0.807083,0.095028
1.165125,-0.807455,0.086401
1.165500,-0.807792,0.077770
1.167321,-0.809428,0.069234
1.167617,-0.809694,0.060586
1.170848,-0.812596,0.052082
1.168091,-0.810120,0.043282
1.168269,-0.810280,0.034628
1.167664,-0.809736,0.025953
1.167762,-0.809825,0.017303
1.167078,-0.809209,0.008645
1.167097,-0.809227,0.000000
1.167078,-0.809209,-0.008645
1.167019,-0.809156,-0.017291
1.168407,-0.810404,-0.025972
1.156434,-0.803006,0.251169
1.153169,-0.800062,0.241569
1.152785,-0.799716,0.232692
1.155292,-0.801977,0.224467
1.154828,-0.801558,0.215597
1.154322,-0.801102,0.206743
1.153038,-0.799945,0.197765
1.153920,-0.800740,0.189220
1.153290,-0.800171,0.180411
1.154093,-0.800895,0.171865
1.156332,-0.802914,0.163544
1.160748,-0.806896,0.155524
1.153312,-0.800191,0.145770
1.151739,-0.798774,0.136930
1.158089,-0.804499,0.120459
1.158619,-0.804976,0.111874
1.166516,-0.812096,0.104020
1.174057,-0.818895,0.087259
1.174434,-0.819236,0.078543
1.174773,-0.819541,0.069823
1.175071,-0.819810,0.061101
1.175329,-0.820043,0.052377
1.173321,-0.818232,0.043558
1.166818,-0.812368,0.034628
1.167054,-0.812582,0.017315
1.165628,-0.811296,0.008645
1.167133,-0.812653,0.000000
1.171570,-0.816653,-0.008695
1.171510,-0.816599,-0.017389
1.154675,-0.804743,0.242253
1.155758,-0.805723,0.233682
1.159730,-0.809317,0.225737
1.160738,-0.810228,0.217125
1.161706,-0.811104,0.208504
1.162635,-0.811945,0.199875
1.162904,-0.812189,0.182339
1.153411,-0.803599,0.171987
1.154174,-0.804290,0.163428
1.151214,-0.801611,0.154311
1.150421,-0.800894,0.145562
1.151064,-0.801475,0.137028
1.153145,-0.803358,0.128673
1.153711,-0.803870,0.120116
1.158673,-0.808360,0.112034
1.159163,-0.808803,0.103432
1.161833,-0.811220,0.095028
1.162246,-0.811593,0.086401
1.163360,-0.812601,0.077825
1.163695,-0.812904,0.069185
1.169175,-0.817863,0.060844
1.169432,-0.818096,0.052156
1.169650,-0.818293,0.043466
1.163156,-0.812417,0.034554
1.169966,-0.818579,0.026082
1.163392,-0.812630,0.017278
1.161968,-0.811342,0.008627
1.159022,-0.808676,0.000000
1.159002,-0.808658,-0.008603
1.158944,-0.808605,-0.017205
1.172191,-0.820591,-0.026138
1.151481,-0.806695,0.250815
1.146769,-0.802409,0.240885
1.146384,-0.802059,0.232033
1.147417,-0.802999,0.223513
1.148413,-0.803904,0.214986
1.148637,-0.804109,0.206303
1.151019,-0.806275,0.198047
1.152632,-0.807742,0.189624
1.152740,-0.807840,0.180925
1.153541,-0.808569,0.172354
1.154304,-0.809263,0.163777
1.156499,-0.811259,0.155413
1.146884,-0.802514,0.145354
1.147525,-0.803097,0.136832
1.148126,-0.803644,0.128305
1.154586,-0.809519,0.120459
1.155113,-0.809999,0.111874
1.155601,-0.810443,0.103285
1.157527,-0.812194,0.094826
1.157938,-0.812568,0.086217
1.164958,-0.818953,0.078101
1.159381,-0.813881,0.069038
1.162631,-0.816837,0.060586
1.160669,-0.815052,0.051825
1.160885,-0.815248,0.043190
1.161061,-0.815409,0.034554
1.162678,-0.816879,0.025953
1.161296,-0.815623,0.017278
1.162835,-0.817022,0.008652
1.162854,-0.817040,0.000000
1.165794,-0.819713,-0.008676
1.162036,-0.816295,-0.017291
1.165636,-0.819570,-0.026027
1.165498,-0.819444,-0.034701
1.139864,-0.799102,0.265831
1.141050,-0.800184,0.257354
1.142197,-0.801231,0.248868
1.147673,-0.806227,0.241398
1.148748,-0.807208,0.232857
1.149784,-0.808153,0.224308
1.150781,-0.809063,0.215750
1.151740,-0.809938,0.207183
1.151196,-0.809442,0.198328
1.154272,-0.812248,0.190163
1.152184,-0.810343,0.181054
1.152985,-0.811074,0.172477
1.153748,-0.811770,0.163893
1.161079,-0.818459,0.156295
1.155066,-0.812973,0.138008
1.149787,-0.808156,0.128673
1.156239,-0.814043,0.120803
1.147194,-0.805790,0.111157
1.147679,-0.806232,0.102623
1.147388,-0.805967,0.094017
1.147794,-0.806338,0.085481
1.148163,-0.806674,0.076942
1.152181,-0.810340,0.068646
1.152473,-0.810607,0.060071
1.154940,-0.812858,0.051604
1.155155,-0.813054,0.043006
1.155330,-0.813214,0.034407
1.155467,-0.813338,0.025806
1.160735,-0.818145,0.017291
1.160793,-0.818199,0.008645
1.161552,-0.818891,0.000000
1.161532,-0.818873,-0.008652
1.161473,-0.818819,-0.017303
1.161375,-0.818730,-0.025953
1.161238,-0.818604,-0.034603
1.138999,-0.802027,0.266020
1.138009,-0.801119,0.256988
1.139153,-0.802167,0.248514
1.140258,-0.803179,0.240030
1.141325,-0.804157,0.231538
1.142353,-0.805099,0.223037
1.143343,-0.806006,0.214527
1.147212,-0.809550,0.206597
1.145207,-0.807713,0.197484
1.143159,-0.805837,0.188413
1.149111,-0.811289,0.180797
1.147714,-0.810010,0.171865
1.145543,-0.808021,0.162846
1.145527,-0.808007,0.154201
1.146206,-0.808628,0.145666
1.144644,-0.807197,0.136832
1.143775,-0.806402,0.128121
1.144336,-0.806915,0.119601
1.139712,-0.802680,0.110520
1.140193,-0.803120,0.102034
1.140635,-0.803525,0.093545
1.141039,-0.803895,0.085052
1.141405,-0.804230,0.076556
1.148361,-0.810602,0.068498
1.148651,-0.810868,0.059942
1.148903,-0.811099,0.051383
1.149116,-0.811294,0.042822
1.149290,-0.811454,0.034260
1.156061,-0.817657,0.025861
1.156159,-0.817746,0.017242
1.156217,-0.817800,0.008621
1.156237,-0.817818,0.000000
1.157692,-0.819151,-0.008633
1.157633,-0.819097,-0.017266
1.157536,-0.819008,-0.025898
1.162559,-0.823609,-0.034701
1.139952,-0.806260,0.275468
1.136117,-0.802734,0.265641
1.137298,-0.803819,0.257171
1.138440,-0.804870,0.248691
1.139545,-0.805885,0.240201
1.140610,-0.806865,0.231703
1.141638,-0.807809,0.223196
1.141899,-0.808050,0.214527
1.142849,-0.808923,0.206010
1.143760,-0.809761,0.197484
1.143174,-0.809222,0.188682
1.145467,-0.811330,0.180411
1.144802,-0.810718,0.171620
1.145558,-0.811413,0.163079
1.148470,-0.814091,0.154862
1.149150,-0.814716,0.146291
1.143931,-0.809917,0.136930
1.150394,-0.815860,0.129132
1.152425,-0.817727,0.120717
1.144145,-0.810114,0.111157
1.144628,-0.810558,0.102623
1.145072,-0.810967,0.094084
1.145478,-0.811340,0.085542
1.145845,-0.811677,0.076997
1.138085,-0.804543,0.067910
1.138373,-0.804808,0.059427
1.159956,-0.824651,0.052009
1.151342,-0.816731,0.042975
1.145629,-0.811479,0.034186
1.151653,-0.817017,0.025788
1.158375,-0.823197,0.017303
1.151808,-0.817160,0.008596
1.158453,-0.823269,0.000000
1.158433,-0.823251,-0.008652
1.155430,-0.820490,-0.017254
1.155333,-0.820400,-0.025880
1.159612,-0.824335,-0.034652
1.138526,-0.808273,0.275468
1.130367,-0.800745,0.264507
1.131540,-0.801828,0.256073
1.139186,-0.808882,0.249222
1.135946,-0.805893,0.239689
1.137008,-0.806873,0.231208
1.138032,-0.807817,0.222719
1.139017,-0.808726,0.214222
1.139964,-0.809600,0.205716
1.140145,-0.809767,0.197062
1.138829,-0.808553,0.188144
1.144761,-0.814026,0.180540
1.144097,-0.813413,0.171742
1.144122,-0.813436,0.163079
1.144838,-0.814097,0.154532
1.146247,-0.815397,0.146083
1.146886,-0.815987,0.137518
1.146755,-0.815866,0.128856
1.143656,-0.813006,0.119859
1.144177,-0.813487,0.111316
1.144660,-0.813932,0.102770
1.145104,-0.814342,0.094219
1.145509,-0.814716,0.085665
1.144409,-0.813701,0.076997
1.144737,-0.814003,0.068449
1.145026,-0.814270,0.059899
1.145277,-0.814502,0.051346
1.145489,-0.814698,0.042791
1.147132,-0.816214,0.034284
1.151677,-0.820407,0.025825
1.151832,-0.820550,0.008609
1.151851,-0.820568,0.000000
1.151097,-0.819872,-0.008603
1.151039,-0.819818,-0.017205
1.150942,-0.819729,-0.025806
1.150806,-0.819603,-0.034407
1.152835,-0.821476,-0.043098
1.138056,-0.812698,0.284764
1.135003,-0.809867,0.275077
1.131901,-0.806991,0.265452
1.133077,-0.808081,0.256988
1.134214,-0.809135,0.248514
1.135313,-0.810155,0.240030
1.133481,-0.808456,0.230878
1.134500,-0.809401,0.222401
1.134249,-0.809168,0.204982
1.135152,-0.810006,0.196500
1.136744,-0.811482,0.188144
1.141207,-0.815621,0.180283
1.141271,-0.815681,0.171620
1.142024,-0.816379,0.163079
1.143467,-0.817717,0.154642
1.145602,-0.819697,0.146291
1.146241,-0.820290,0.137714
1.147571,-0.821524,0.129224
1.148133,-0.822045,0.120631
1.149141,-0.822980,0.103432
1.141540,-0.815930,0.094084
1.141945,-0.816305,0.085542
1.139382,-0.813928,0.076777
1.139708,-0.814231,0.068253
1.140728,-0.815177,0.059770
1.140978,-0.815409,0.051236
1.141189,-0.815605,0.042699
1.143561,-0.817805,0.034235
1.143696,-0.817930,0.025677
1.144526,-0.818699,0.017131
1.144583,-0.818753,0.008566
1.147535,-0.821490,0.000000
1.144583,-0.818753,-0.008566
1.147458,-0.821419,-0.017180
1.150294,-0.824049,-0.025843
1.153090,-0.826642,-0.034554
1.153648,-0.827160,-0.043221
1.132439,-0.810531,0.283558
1.132258,-0.810362,0.274687
1.132035,-0.810155,0.265831
1.133210,-0.811248,0.257354
1.134347,-0.812306,0.248868
1.133282,-0.811315,0.239860
1.132174,-0.810285,0.230878
1.126687,-0.805179,0.220972
1.127661,-0.806085,0.212541
1.128596,-0.806956,0.204102
1.134568,-0.812512,0.196640
1.135432,-0.813316,0.188144
1.138437,-0.816111,0.180026
1.139226,-0.816846,0.171497
1.139977,-0.817545,0.162962
1.140690,-0.818208,0.154421
1.141365,-0.818836,0.145874
1.142001,-0.819428,0.137322
1.142599,-0.819984,0.128764
1.138781,-0.816432,0.119687
1.139300,-0.816914,0.111157
1.138320,-0.816003,0.102475
1.140222,-0.817772,0.094084
1.142337,-0.819740,0.059942
1.138929,-0.816569,0.051199
1.137676,-0.815404,0.042607
1.132725,-0.810797,0.033916
1.132858,-0.810921,0.025438
1.138078,-0.815778,0.017045
1.138135,-0.815831,0.008523
1.141083,-0.818574,0.000000
1.141796,-0.819237,-0.008553
1.143202,-0.820546,-0.017131
1.148962,-0.825905,-0.025843
1.151022,-0.827822,-0.034530
1.124639,-0.806997,0.299420
1.125963,-0.808233,0.290991
1.127249,-0.809434,0.282552
1.129213,-0.811270,0.274297
1.130424,-0.812401,0.265831
1.131597,-0.813497,0.257354
1.131294,-0.813213,0.248514
1.128069,-0.810201,0.239005
1.127680,-0.809838,0.230219
1.125808,-0.808088,0.221131
1.126058,-0.808322,0.212541
1.126992,-0.809195,0.204102
1.128612,-0.810708,0.195796
1.129471,-0.811510,0.187336
1.133915,-0.815662,0.179512
1.134701,-0.816396,0.171008
1.133997,-0.815739,0.162264
1.134706,-0.816400,0.153760
1.135376,-0.817027,0.145250
1.136008,-0.817617,0.136734
1.136602,-0.818172,0.128213
1.137886,-0.819371,0.119773
1.138404,-0.819855,0.111237
1.138884,-0.820303,0.102696
1.139325,-0.820715,0.094152
1.138269,-0.819729,0.085481
1.138633,-0.820069,0.076942
1.132390,-0.814237,0.067959
1.132676,-0.814504,0.059469
1.135114,-0.816782,0.051088
1.135324,-0.816978,0.042577
1.133305,-0.815092,0.033990
1.129785,-0.811804,0.025401
1.129149,-0.811210,0.016922
1.129206,-0.811263,0.008461
1.129225,-0.811281,0.000000
1.137975,-0.819454,-0.008535
1.137918,-0.819401,-0.017070
1.149512,-0.830232,-0.025898
1.149377,-0.830105,-0.034530
1.124515,-0.810246,0.290991
1.125799,-0.811450,0.282552
1.127045,-0.812618,0.274102
1.128253,-0.813750,0.265641
1.129423,-0.814847,0.257171
1.130122,-0.815503,0.222401
1.127494,-0.813039,0.213152
1.128429,-0.813916,0.204689
1.129327,-0.814757,0.196218
1.130186,-0.815563,0.187740
1.131007,-0.816333,0.179255
1.130343,-0.815710,0.170518
1.130362,-0.815728,0.161916
1.131068,-0.816390,0.153429
1.130285,-0.815655,0.144729
1.130188,-0.815564,0.136146
1.129325,-0.814756,0.127478
1.131331,-0.816636,0.119172
1.131845,-0.817118,0.110679
1.133777,-0.818929,0.102328
1.134943,-0.820023,0.093882
1.136073,-0.821082,0.085420
1.136436,-0.821422,0.076887
1.140404,-0.825143,0.068597
1.137048,-0.821996,0.059813
1.137297,-0.822229,0.051272
1.140424,-0.825161,0.042853
1.137679,-0.822588,0.034186
1.135625,-0.820662,0.025585
1.122590,-0.808441,0.016837
1.122646,-0.808494,0.008418
1.122665,-0.808512,0.000000
1.125564,-0.811230,-0.008443
1.125508,-0.811177,-0.016886
1.139272,-0.824081,-0.025677
1.139138,-0.823955,-0.034235
1.141882,-0.826528,-0.042914
1.122369,-0.811562,0.290784
1.123650,-0.812767,0.282351
1.124893,-0.813936,0.273907
1.124667,-0.813724,0.265074
1.123685,-0.812800,0.256073
1.124811,-0.813859,0.247629
1.125898,-0.814882,0.239176
1.124793,-0.813843,0.230219
1.125803,-0.814793,0.221766
1.125336,-0.814353,0.212999
1.128430,-0.817264,0.204982
1.127164,-0.816073,0.196078
1.128021,-0.816880,0.187606
1.122340,-0.811535,0.177970
1.123117,-0.812265,0.169539
1.123855,-0.812960,0.161101
1.129624,-0.818387,0.153429
1.130919,-0.819606,0.136440
1.130785,-0.819479,0.127845
1.131337,-0.819999,0.119344
1.131851,-0.820483,0.110838
1.131601,-0.820248,0.102255
1.132039,-0.820660,0.093747
1.137528,-0.825824,0.085665
1.136437,-0.824798,0.076997
1.130215,-0.818944,0.068008
1.130500,-0.819212,0.059512
1.128564,-0.817390,0.050904
1.128772,-0.817586,0.042423
1.128215,-0.817061,0.033916
1.129075,-0.817871,0.025457
1.129170,-0.817961,0.016972
1.135054,-0.823496,0.008535
1.135073,-0.823514,0.000000
1.135054,-0.823496,-0.008535
1.132083,-0.820701,-0.017021
1.132583,-0.821172,-0.034063
1.132412,-0.821011,-0.042577
1.120276,-0.814448,0.290784
1.121554,-0.815657,0.282351
1.122793,-0.816829,0.273907
1.126850,-0.820665,0.266209
1.128017,-0.821769,0.257720
1.129147,-0.822838,0.249222
1.124513,-0.818455,0.239347
1.124128,-0.818091,0.230549
1.124419,-0.818367,0.221925
1.125390,-0.819284,0.213458
1.126322,-0.820166,0.204982
1.122901,-0.816931,0.195656
1.123755,-0.817738,0.187202
1.124570,-0.818510,0.178741
1.125348,-0.819245,0.170273
1.126089,-0.819945,0.161799
1.127513,-0.821293,0.153429
1.128178,-0.821922,0.144937
1.137482,-0.830720,0.137616
1.132289,-0.825809,0.128305
1.129946,-0.823593,0.119430
1.129735,-0.823394,0.110838
1.130211,-0.823843,0.102328
1.130648,-0.824257,0.093814
1.131047,-0.824634,0.085297
1.131408,-0.824976,0.076777
1.131732,-0.825282,0.068253
1.134194,-0.827611,0.059856
1.134442,-0.827845,0.051309
1.130295,-0.823923,0.042577
1.129739,-0.823398,0.034039
1.129872,-0.823523,0.025530
1.129967,-0.823613,0.017021
1.127118,-0.820918,0.008486
1.126410,-0.820249,0.000000
1.126391,-0.820231,-0.008480
1.124155,-0.818117,-0.016922
1.124061,-0.818027,-0.025383
1.123928,-0.817903,-0.033842
1.136104,-0.829417,-0.042822
1.139525,-0.832652,-0.051567
1.126415,-0.823829,0.284161
1.121970,-0.819610,0.274102
1.120322,-0.818045,0.264885
1.119343,-0.817116,0.255890
1.119750,-0.817502,0.247275
1.120831,-0.818528,0.238834
1.121160,-0.818840,0.230219
1.122166,-0.819795,0.221766
1.119550,-0.817312,0.212541
1.120477,-0.818192,0.204102
1.120649,-0.818355,0.195515
1.121500,-0.819163,0.187067
1.121594,-0.819253,0.178484
1.123090,-0.820672,0.170151
1.123828,-0.821373,0.161683
1.118041,-0.815880,0.152217
1.117257,-0.815135,0.143584
1.124960,-0.822447,0.127570
1.125509,-0.822968,0.119087
1.126020,-0.823453,0.110599
1.133441,-0.830498,0.094219
1.133841,-0.830878,0.085665
1.134203,-0.831222,0.077108
1.134528,-0.831530,0.068548
1.129017,-0.826298,0.059641
1.129263,-0.826532,0.051125
1.133821,-0.830859,0.042791
1.135443,-0.832398,0.034284
1.134126,-0.831149,0.025677
1.134221,-0.831239,0.017119
1.134278,-0.831293,0.008560
1.121224,-0.818901,-0.008449
1.121167,-0.818847,-0.016898
1.121073,-0.818758,-0.025346
1.120942,-0.818633,-0.033793
1.120773,-0.818473,-0.042239
1.132162,-0.829284,-0.051272
1.113432,-0.815251,0.280943
1.114661,-0.816422,0.272541
1.113720,-0.815526,0.263562
1.112026,-0.813911,0.254425
1.113137,-0.814970,0.246036
1.115638,-0.817353,0.237979
1.113106,-0.814941,0.228734
1.117677,-0.819297,0.221131
1.120071,-0.821579,0.212999
1.120999,-0.822462,0.204542
1.120455,-0.821944,0.195796
1.121306,-0.822755,0.187336
1.117812,-0.819425,0.178098
1.118584,-0.820161,0.169661
1.118600,-0.820176,0.161101
1.117138,-0.818783,0.152327
1.117076,-0.818724,0.143792
1.120578,-0.822061,0.135754
1.121162,-0.822618,0.127294
1.123151,-0.824514,0.119001
1.123661,-0.825000,0.110520
1.125577,-0.826826,0.102181
1.126012,-0.827240,0.093680
1.126409,-0.827619,0.085175
1.126769,-0.827961,0.076666
1.129982,-0.831024,0.068351
1.130267,-0.831295,0.059813
1.130514,-0.831531,0.051272
1.130722,-0.831729,0.042730
1.130893,-0.831892,0.034186
1.131026,-0.832019,0.025641
1.124606,-0.825901,0.016984
1.124663,-0.825955,0.008492
1.133369,-0.834251,0.000000
1.121044,-0.822505,-0.008461
1.120987,-0.822451,-0.016922
1.128131,-0.829260,-0.025567
1.127998,-0.829134,-0.034088
1.127828,-0.828971,-0.042607
1.111264,-0.816564,0.280742
1.109655,-0.815025,0.271566
1.110840,-0.816159,0.263184
1.114830,-0.819976,0.255524
1.115945,-0.821042,0.247098
1.117022,-0.822072,0.238663
1.118061,-0.823066,0.230219
1.115496,-0.820613,0.220972
1.115743,-0.820849,0.212388
1.116666,-0.821732,0.203955
1.118267,-0.823263,0.195656
1.118400,-0.823390,0.187067
1.119211,-0.824165,0.178612
1.118550,-0.823533,0.169906
1.119284,-0.824236,0.161450
1.119981,-0.824903,0.152988
1.120641,-0.825533,0.144521
1.111914,-0.817186,0.134774
1.112493,-0.817740,0.126375
1.113034,-0.818258,0.117971
1.113539,-0.818740,0.109563
1.121213,-0.826081,0.101887
1.123809,-0.828564,0.093612
1.124205,-0.828943,0.085113
1.122399,-0.827215,0.076445
1.122720,-0.827521,0.067959
1.125168,-0.829863,0.059598
1.127580,-0.832170,0.051199
1.126343,-0.830987,0.042607
1.126513,-0.831150,0.034088
1.126646,-0.831277,0.025567
1.126740,-0.831367,0.017045
1.126797,-0.831421,0.008523
1.117421,-0.822454,0.000000
1.117402,-0.822436,-0.008443
1.117346,-0.822382,-0.016886
1.117253,-0.822293,-0.025328
1.117122,-0.822167,-0.033769
1.117676,-0.822697,-0.042239
1.115472,-0.823953,0.282351
1.113166,-0.821739,0.272931
1.114355,-0.822881,0.264507
1.114089,-0.822626,0.255707
1.113072,-0.821649,0.246744
1.114146,-0.822680,0.238321
1.115182,-0.823675,0.229889
1.111195,-0.819848,0.220336
1.111439,-0.820082,0.211777
1.111644,-0.820279,0.203222
1.112525,-0.821124,0.194812
1.113369,-0.821934,0.186394
1.115606,-0.824082,0.178227
1.122051,-0.830267,0.144937
1.114776,-0.823285,0.135362
1.115356,-0.823842,0.126926
1.111587,-0.820224,0.117971
1.112090,-0.820707,0.109563
1.114715,-0.823226,0.101372
1.115145,-0.823639,0.092938
1.115538,-0.824016,0.084500
1.118054,-0.826432,0.076225
1.118373,-0.826738,0.067762
1.119375,-0.827699,0.059341
1.119619,-0.827933,0.050868
1.119825,-0.828132,0.042393
1.119273,-0.827601,0.033891
1.120126,-0.828420,0.025438
1.119498,-0.827817,0.016947
1.119554,-0.827871,0.008474
1.123180,-0.831352,0.000000
1.123162,-0.831334,-0.008504
1.119498,-0.827817,-0.016947
1.123011,-0.831189,-0.025512
1.125764,-0.833832,-0.034112
1.127036,-0.835053,-0.042699
1.128991,-0.836930,-0.051346
1.113291,-0.825268,0.282150
1.102511,-0.814884,0.270395
1.103688,-0.816017,0.262049
1.107659,-0.819843,0.254425
1.105930,-0.818177,0.245328
1.106995,-0.819203,0.236953
1.110865,-0.822931,0.229229
1.109016,-0.821149,0.220177
1.109970,-0.822069,0.211777
1.108750,-0.820894,0.202928
1.111767,-0.823800,0.194952
1.112610,-0.824612,0.186529
1.114130,-0.826076,0.178227
1.114184,-0.826128,0.169661
1.115631,-0.827522,0.161334
1.116325,-0.828191,0.152878
1.109819,-0.821923,0.143375
1.110434,-0.822516,0.134970
1.115315,-0.827217,0.127110
1.111553,-0.823593,0.118143
1.112056,-0.824078,0.109723
1.109649,-0.821760,0.101004
1.110077,-0.822172,0.092601
1.110468,-0.822548,0.084193
1.113698,-0.825660,0.076004
1.114015,-0.825965,0.067566
1.114295,-0.826235,0.059126
1.114537,-0.826469,0.050684
1.121222,-0.832907,0.042515
1.121391,-0.833070,0.034014
1.121522,-0.833197,0.025512
1.121616,-0.833287,0.017008
1.115911,-0.827792,0.008455
1.115930,-0.827810,0.000000
1.115911,-0.827792,-0.008455
1.115855,-0.827738,-0.016910
1.115762,-0.827648,-0.025364
1.098936,-0.814810,0.269810
1.100108,-0.815943,0.261482
1.101950,-0.817723,0.253327
1.103049,-0.818786,0.244974
1.106237,-0.821867,0.237124
1.107973,-0.823546,0.228899
1.108964,-0.824504,0.220495
1.109919,-0.825427,0.212082
1.106569,-0.822188,0.202782
1.107445,-0.823035,0.194390
1.108284,-0.823846,0.185991
1.109086,-0.824622,0.177584
1.109137,-0.824671,0.169049
1.109864,-0.825374,0.160636
1.109840,-0.825351,0.152107
1.108347,-0.823907,0.143375
1.111107,-0.826576,0.135264
1.112401,-0.827827,0.126926
1.113659,-0.829043,0.118572
1.114164,-0.829531,0.110121
1.114631,-0.829982,0.101666
1.115060,-0.830398,0.093207
1.115453,-0.830777,0.084745
1.112219,-0.827651,0.076004
1.108945,-0.824486,0.067321
1.119998,-0.835171,0.059555
1.111620,-0.827072,0.050610
1.111825,-0.827270,0.042178
1.117024,-0.832296,0.033916
1.122905,-0.837982,0.025585
1.121562,-0.836683,0.017033
1.121618,-0.836737,0.008517
1.121637,-0.836755,0.000000
1.121618,-0.836737,-0.008517
1.120843,-0.835988,-0.017021
1.120749,-0.835897,-0.025530
1.120617,-0.835770,-0.034039
1.098022,-0.818748,0.261482
1.099154,-0.819848,0.253144
1.100250,-0.820913,0.244797
1.101309,-0.821942,0.236440
1.102331,-0.822935,0.228075
1.104024,-0.824580,0.219860
1.102847,-0.823436,0.211013
1.103757,-0.824321,0.202635
1.106760,-0.827239,0.194671
1.107599,-0.828054,0.186260
1.109111,-0.829523,0.177970
1.109875,-0.830266,0.169539
1.106329,-0.826820,0.160403
1.105591,-0.826103,0.151776
1.106954,-0.827427,0.143480
1.107566,-0.828023,0.135068
1.107428,-0.827888,0.126559
1.103679,-0.824245,0.117628
1.102749,-0.823341,0.109085
1.103210,-0.823790,0.100710
1.103635,-0.824202,0.092331
1.106170,-0.826666,0.084132
1.106522,-0.827008,0.075728
1.106837,-0.827314,0.067321
1.109264,-0.829672,0.059040
1.109506,-0.829907,0.050610
1.111143,-0.831498,0.042239
1.114179,-0.834448,0.033891
1.117271,-0.837452,0.016996
1.117327,-0.837507,0.008498
1.117346,-0.837525,0.000000
1.117327,-0.837507,-0.008498
1.117271,-0.837452,-0.016996
1.119328,-0.839452,-0.025549
1.122782,-0.842808,-0.034186
1.098772,-0.822624,0.262049
1.099905,-0.823729,0.253693
1.098182,-0.822049,0.244620
1.099239,-0.823079,0.236269
1.099552,-0.823385,0.227745
1.097000,-0.820896,0.218589
1.097942,-0.821815,0.210249
1.098847,-0.822697,0.201901
1.103261,-0.827000,0.194249
1.104095,-0.827814,0.185856
1.104894,-0.828592,0.177456
1.102812,-0.826563,0.168560
1.103534,-0.827267,0.160171
1.104220,-0.827935,0.151776
1.104868,-0.828567,0.143375
1.105479,-0.829163,0.134970
1.106054,-0.829723,0.126559
1.106591,-0.830247,0.118143
1.104237,-0.827952,0.109404
1.104699,-0.828403,0.101004
1.102267,-0.826031,0.092331
1.104084,-0.827802,0.084071
1.103005,-0.826750,0.075562
1.102603,-0.826359,0.067125
1.103595,-0.827326,0.058782
1.105266,-0.828955,0.050463
1.108332,-0.831944,0.042178
1.108499,-0.832107,0.033744
1.108628,-0.832233,0.025309
1.114449,-0.837907,0.016972
1.110925,-0.834472,0.008455
1.110943,-0.834490,0.000000
1.110925,-0.834472,-0.008455
1.111585,-0.835115,-0.016922
1.111492,-0.835025,-0.025383
1.114225,-0.837689,-0.033941
1.107885,-0.835324,0.273712
1.095031,-0.822743,0.261482
1.096160,-0.823848,0.253144
1.093735,-0.821474,0.243912
1.094786,-0.822503,0.235585
1.098620,-0.826256,0.227910
1.099601,-0.827216,0.219542
1.096308,-0.823993,0.210249
1.101453,-0.829029,0.202782
1.102324,-0.829881,0.194390
1.111656,-0.839015,0.187606
1.098994,-0.826622,0.176685
1.101878,-0.829445,0.168682
1.097631,-0.825288,0.159473
1.103284,-0.830821,0.151886
1.103932,-0.831455,0.143480
1.105965,-0.833445,0.135264
1.107251,-0.834704,0.126926
1.110637,-0.838018,0.118829
1.111140,-0.838510,0.110360
1.115168,-0.842453,0.102255
1.108812,-0.836231,0.067664
1.107662,-0.835106,0.059126
1.106475,-0.833944,0.050610
1.105249,-0.832744,0.042117
1.104701,-0.832208,0.033671
1.103401,-0.830935,0.025217
1.104923,-0.832425,0.016837
1.105693,-0.833178,0.008425
1.105711,-0.833196,0.000000
1.107836,-0.835277,-0.008443
1.109925,-0.837321,-0.016922
1.110546,-0.837929,-0.025401
1.113989,-0.841298,-0.033990
1.094494,-0.825620,0.270395
1.094258,-0.825389,0.261671
1.095386,-0.826496,0.253327
1.094370,-0.825498,0.244443
1.095422,-0.826531,0.236098
1.093622,-0.824764,0.227085
1.094598,-0.825723,0.218748
1.091307,-0.822490,0.209485
1.092206,-0.823373,0.201167
1.100393,-0.831415,0.168682
1.101113,-0.832122,0.160287
1.097542,-0.828614,0.151225
1.098185,-0.829246,0.142855
1.100212,-0.831237,0.134676
1.105046,-0.835985,0.126834
1.105582,-0.836513,0.118400
1.106082,-0.837003,0.109962
1.102276,-0.833265,0.101078
1.102700,-0.833681,0.092668
1.103088,-0.834062,0.084255
1.103438,-0.834406,0.075838
1.100189,-0.831214,0.067174
1.100464,-0.831485,0.058782
1.104268,-0.835221,0.050573
1.101619,-0.832619,0.042024
1.098932,-0.829979,0.033523
1.099060,-0.830105,0.025144
1.102005,-0.832998,0.016812
1.102060,-0.833053,0.008406
1.104219,-0.835173,0.000000
1.106340,-0.837257,-0.008443
1.110565,-0.841407,-0.016959
1.110472,-0.841316,-0.025438
1.086747,-0.821356,0.268639
1.087903,-0.822496,0.260348
1.089023,-0.823599,0.252046
1.090106,-0.824667,0.243735
1.090451,-0.825007,0.235244
1.090758,-0.825310,0.226756
1.091731,-0.826269,0.218430
1.092667,-0.827192,0.210096
1.090045,-0.824607,0.201021
1.091610,-0.826150,0.192842
1.091729,-0.826267,0.184376
1.093223,-0.827740,0.176171
1.093974,-0.828481,0.167825
1.096104,-0.830580,0.159705
1.097491,-0.831948,0.151445
1.098135,-0.832582,0.143063
1.098742,-0.833180,0.134676
1.099312,-0.833742,0.126283
1.099845,-0.834268,0.117886
1.101762,-0.836158,0.109643
1.102222,-0.836612,0.101225
1.102646,-0.837030,0.092803
1.103033,-0.837411,0.084377
1.103384,-0.837757,0.075949
1.094450,-0.828950,0.066879
1.094724,-0.829220,0.058525
1.098520,-0.832962,0.050352
1.098722,-0.833161,0.041963
1.098887,-0.833324,0.033572
1.099015,-0.833450,0.025180
1.105516,-0.839858,0.016898
1.104859,-0.839211,0.008443
1.102029,-0.836421,0.000000
1.104859,-0.839211,-0.008443
1.088994,-0.828476,0.252595
1.089377,-0.828856,0.244089
1.090423,-0.829892,0.235756
1.091432,-0.830893,0.227415
1.092405,-0.831857,0.219065
1.090534,-0.830002,0.210096
1.091432,-0.830892,0.201754
1.090183,-0.829655,0.192983
1.091006,-0.830470,0.184645
1.091793,-0.831249,0.176299
1.091133,-0.830596,0.167703
1.096079,-0.835496,0.160054
1.096758,-0.836170,0.151666
1.093868,-0.833306,0.142751
1.094472,-0.833905,0.134382
1.095040,-0.834467,0.126007
1.094863,-0.834292,0.117542
1.096065,-0.835483,0.109245
1.097940,-0.837341,0.101004
1.098362,-0.837759,0.092601
1.098747,-0.838140,0.084193
1.099096,-0.838486,0.075783
1.095860,-0.835280,0.067125
1.096135,-0.835552,0.058740
1.096372,-0.835787,0.050352
1.097283,-0.836690,0.041994
1.097448,-0.836854,0.033597
1.097576,-0.836980,0.025199
1.097668,-0.837071,0.016800
1.097723,-0.837126,0.008400
1.101293,-0.840663,0.000000
1.103405,-0.842756,-0.008449
1.109032,-0.848332,-0.016996
1.086043,-0.829131,0.252229
1.087122,-0.830205,0.243912
1.085371,-0.828463,0.234902
1.087774,-0.830852,0.226920
1.088743,-0.831816,0.218589
1.093880,-0.836925,0.211166
1.090572,-0.833636,0.201901
1.091432,-0.834491,0.193546
1.090851,-0.833913,0.184914
1.089528,-0.832597,0.176171
1.090276,-0.833341,0.167825
1.091692,-0.834750,0.159589
1.092368,-0.835422,0.151225
1.090893,-0.833954,0.142543
1.093611,-0.836659,0.134480
1.094178,-0.837222,0.126099
1.092589,-0.835642,0.117457
1.093082,-0.836132,0.109085
1.096367,-0.839399,0.101004
1.096788,-0.839818,0.092601
1.094342,-0.837385,0.083948
1.093981,-0.837026,0.075507
1.094291,-0.837335,0.067125
1.094565,-0.837607,0.058740
1.092677,-0.835729,0.050242
1.095003,-0.838043,0.041963
1.095167,-0.838206,0.033572
1.093168,-0.836218,0.025125
1.093260,-0.836309,0.016751
1.097568,-0.840594,0.008412
1.097587,-0.840612,0.000000
1.100404,-0.843415,-0.008437
1.083282,-0.830174,0.260537
1.083699,-0.830591,0.252046
1.084776,-0.831666,0.243735
1.085119,-0.832008,0.235244
1.086122,-0.833010,0.226920
1.086391,-0.833278,0.218430
1.087321,-0.834207,0.210096
1.088215,-0.835100,0.201754
1.089073,-0.835957,0.193405
1.089193,-0.836077,0.184914
1.089978,-0.836861,0.176556
1.089322,-0.836205,0.167947
1.088627,-0.835512,0.159357
1.089301,-0.836185,0.151004
1.089939,-0.836821,0.142647
1.090540,-0.837422,0.134283
1.088991,-0.835875,0.125640
1.097978,-0.844849,0.118314
1.098474,-0.845344,0.109882
1.093287,-0.840165,0.100857
1.093001,-0.839879,0.092398
1.093383,-0.840261,0.084009
1.093730,-0.840607,0.075617
1.094747,-0.841623,0.067272
1.101383,-0.848250,0.059255
1.101622,-0.848488,0.050794
1.101990,-0.848855,0.033867
1.094336,-0.841213,0.025199
1.094427,-0.841304,0.016800
1.100850,-0.847717,0.008455
1.100869,-0.847736,0.000000
1.081101,-0.831416,0.260348
1.080128,-0.830441,0.251497
1.081200,-0.831515,0.243204
1.081541,-0.831856,0.234731
1.082540,-0.832857,0.226426
1.083503,-0.833823,0.218112
1.085129,-0.835452,0.209943
1.085322,-0.835645,0.201461
1.086177,-0.836502,0.193124
1.086996,-0.837323,0.184779
1.087779,-0.838107,0.176428
1.083618,-0.833938,0.167213
1.084325,-0.834646,0.158891
1.084995,-0.835318,0.150564
1.085630,-0.835954,0.142230
1.085525,-0.835849,0.133793
1.086087,-0.836412,0.125456
1.089428,-0.839760,0.117457
1.090623,-0.840957,0.109165
1.091078,-0.841413,0.100783
1.091496,-0.841833,0.092398
1.093289,-0.843629,0.084132
1.093635,-0.843976,0.075728
1.093945,-0.844287,0.067321
1.094218,-0.844561,0.058911
1.092338,-0.842676,0.050389
1.092538,-0.842877,0.041994
1.091290,-0.841626,0.033548
1.090711,-0.841046,0.025144
1.090095,-0.840429,0.016751
1.090856,-0.841191,0.008382
1.090874,-0.841209,0.000000
1.078228,-0.831956,0.259969
1.079334,-0.833069,0.251680
1.079711,-0.833448,0.243204
1.081440,-0.835187,0.235073
1.085221,-0.838989,0.227415
1.086187,-0.839961,0.219065
1.083632,-0.837392,0.209943
1.082430,-0.836183,0.201167
1.083283,-0.837040,0.192842
1.077811,-0.831537,0.183299
1.077887,-0.831613,0.174886
1.077226,-0.830948,0.166356
1.079328,-0.833063,0.158310
1.080696,-0.834438,0.150123
1.082029,-0.835779,0.141918
1.082625,-0.836378,0.133597
1.083887,-0.837647,0.125364
1.084411,-0.838175,0.117028
1.089116,-0.842907,0.109165
1.089988,-0.843784,0.092398
1.090370,-0.844168,0.084009
1.086491,-0.840267,0.075286
1.086799,-0.840576,0.066928
1.089184,-0.842975,0.058697
1.091533,-0.845338,0.050426
1.090324,-0.844121,0.041963
1.090487,-0.844286,0.033572
1.093434,-0.847250,0.025254
1.092820,-0.846632,0.016824
1.092875,-0.846687,0.008412
1.080628,-0.837768,0.252412
1.079622,-0.836753,0.243558
1.077189,-0.834297,0.234389
1.078183,-0.835301,0.226096
1.078447,-0.835567,0.217636
1.078673,-0.835795,0.209179
1.079558,-0.836689,0.200874
1.080408,-0.837546,0.192561
1.081222,-0.838367,0.184241
1.078509,-0.835630,0.175271
1.077153,-0.834261,0.166601
1.078553,-0.835674,0.158426
1.079220,-0.836347,0.150123
1.079850,-0.836983,0.141814
1.080445,-0.837583,0.133499
1.082405,-0.839562,0.125364
1.082928,-0.840090,0.117028
1.083416,-0.840582,0.108687
1.083867,-0.841037,0.100342
1.084282,-0.841456,0.091994
1.084662,-0.841839,0.083641
1.082896,-0.840058,0.075121
1.085312,-0.842496,0.066928
1.089099,-0.846318,0.058782
1.085818,-0.843006,0.050205
1.088127,-0.845337,0.041932
1.088290,-0.845501,0.033548
1.087009,-0.844209,0.025125
1.087100,-0.844300,0.016751
1.088562,-0.845776,0.008388
1.077056,-0.837601,0.251863
1.077432,-0.837983,0.243381
1.078463,-0.839027,0.235073
1.078073,-0.838632,0.226426
1.079031,-0.839602,0.218112
1.079953,-0.840537,0.209791
1.080840,-0.841434,0.201461
1.080299,-0.840887,0.192842
1.079024,-0.839595,0.184106
1.078406,-0.838969,0.175528
1.082631,-0.843249,0.167825
1.079848,-0.840430,0.158891
1.077024,-0.837569,0.150012
1.077652,-0.838206,0.141710
1.080343,-0.840931,0.133695
1.079502,-0.840079,0.125180
1.080024,-0.840608,0.116856
1.080510,-0.841100,0.108527
1.080959,-0.841556,0.100195
1.081373,-0.841975,0.091859
1.082453,-0.843068,0.083580
1.082795,-0.843415,0.075231
1.085908,-0.846568,0.067076
1.086179,-0.846843,0.058697
1.086414,-0.847081,0.050315
1.084506,-0.845148,0.041840
1.084669,-0.845313,0.033474
1.084795,-0.845441,0.025107
1.086993,-0.847667,0.016775
1.087047,-0.847722,0.008388
1.072816,-0.836700,0.251131
1.073879,-0.837780,0.242850
1.074906,-0.838825,0.234560
1.074514,-0.838426,0.225931
1.074776,-0.838693,0.217477
1.075694,-0.839626,0.209179
1.076576,-0.840522,0.200874
1.077423,-0.841383,0.192561
1.078234,-0.842207,0.184241
1.076922,-0.840874,0.175528
1.077664,-0.841629,0.158775
1.078330,-0.842305,0.150453
1.078959,-0.842945,0.142126
1.084438,-0.848514,0.134480
1.082206,-0.846245,0.125731
1.082729,-0.846776,0.117371
1.083216,-0.847272,0.109006
1.083667,-0.847730,0.100636
1.078484,-0.842462,0.091724
1.078861,-0.842845,0.083396
1.080603,-0.844615,0.075176
1.083009,-0.847062,0.066977
1.083280,-0.847336,0.058611
1.083514,-0.847574,0.050242
1.083712,-0.847776,0.041871
1.083874,-0.847941,0.033499
1.084000,-0.848069,0.025125
1.086194,-0.850299,0.016787
1.069758,-0.837447,0.250765
1.070818,-0.838528,0.242496
