1.280730,-0.581783,0.085726
1.281155,-0.582045,0.077163
1.281535,-0.582280,0.068597
1.281871,-0.582487,0.060028
1.282162,-0.582667,0.051456
1.282408,-0.582819,0.042883
1.282610,-0.582944,0.034309
1.284468,-0.584091,0.025769
1.286530,-0.588100,0.146916
1.286428,-0.588037,0.138204
1.287126,-0.588470,0.129592
1.288626,-0.589400,0.121060
1.290930,-0.590827,0.112591
1.291494,-0.591177,0.103947
1.292014,-0.591500,0.095298
1.292488,-0.591794,0.086646
1.288674,-0.589429,0.077715
1.287359,-0.588614,0.068989
1.287697,-0.588823,0.060371
1.280345,-0.584266,0.051420
1.280591,-0.584418,0.042853
1.272295,-0.579276,0.034039
1.272450,-0.579372,0.025530
1.272561,-0.579441,0.017021
1.285377,-0.587385,0.008603
1.287048,-0.591704,0.147124
1.287792,-0.592168,0.138498
1.286801,-0.591550,0.129684
1.287454,-0.591957,0.121060
1.289754,-0.593389,0.112591
1.288625,-0.592686,0.103800
1.284061,-0.589844,0.094759
1.282838,-0.589083,0.086033
1.282416,-0.588820,0.077384
1.281949,-0.588529,0.068744
1.282284,-0.588738,0.060156
1.280879,-0.587863,0.051493
1.278579,-0.586431,0.042822
1.271142,-0.581800,0.034039
1.281482,-0.588239,0.025751
1.281594,-0.588308,0.017168
1.286754,-0.591521,0.008621
1.286885,-0.594567,0.155964
1.287674,-0.595060,0.147332
1.288419,-0.595526,0.138694
1.289118,-0.595963,0.130051
1.287237,-0.594787,0.121146
1.287845,-0.595167,0.112512
1.288408,-0.595519,0.103873
1.288926,-0.595843,0.095231
1.289399,-0.596139,0.086585
1.284747,-0.593230,0.077605
1.282588,-0.591880,0.068842
1.282924,-0.592090,0.060242
1.281520,-0.591213,0.051567
1.281766,-0.591367,0.042975
1.283662,-0.592552,0.034431
1.282124,-0.591590,0.025788
1.282235,-0.591660,0.017192
1.284846,-0.593292,0.008615
1.285717,-0.593836,0.000000
1.288306,-0.598392,0.147540
1.287364,-0.597801,0.138694
1.288062,-0.598240,0.130051
1.286184,-0.597061,0.121146
1.283414,-0.595322,0.112193
1.283975,-0.595674,0.103579
1.287026,-0.597589,0.095163
1.288344,-0.598416,0.086585
1.287925,-0.598154,0.077880
1.293384,-0.601579,0.069529
1.290234,-0.599603,0.034652
1.286157,-0.597044,0.025898
1.286270,-0.597114,0.017266
1.286337,-0.597157,0.008633
1.287206,-0.597702,0.000000
1.281715,-0.598522,0.146916
1.281613,-0.598458,0.138204
1.282308,-0.598896,0.129592
1.284643,-0.600370,0.121146
1.285249,-0.600753,0.112512
1.285810,-0.601107,0.103873
1.286327,-0.601433,0.095231
1.291019,-0.604395,0.086891
1.285537,-0.600934,0.077825
1.285074,-0.600642,0.069136
1.286255,-0.601388,0.060543
1.286547,-0.601572,0.051898
1.286793,-0.601727,0.043251
1.286995,-0.601855,0.034603
1.293916,-0.606223,0.026101
1.294029,-0.606295,0.017401
1.292406,-0.605270,0.008688
1.294120,-0.606352,0.000000
1.282504,-0.601667,0.164591
1.283334,-0.602193,0.155964
1.281600,-0.601094,0.147020
1.282340,-0.601563,0.138400
1.282194,-0.601470,0.129684
1.283685,-0.602415,0.121146
1.284291,-0.602799,0.112512
1.284009,-0.602620,0.103800
1.287896,-0.605083,0.095433
1.289212,-0.605916,0.086830
1.289639,-0.606187,0.078156
1.295084,-0.609636,0.069774
1.295424,-0.609851,0.061058
1.296562,-0.610572,0.052377
1.295966,-0.610194,0.043620
1.289413,-0.606044,0.034701
1.284503,-0.602933,0.025917
1.284615,-0.603004,0.017278
1.281303,-0.600906,0.008615
1.284704,-0.603061,0.000000
1.289751,-0.606257,-0.008676
1.282145,-0.604745,0.164707
1.282136,-0.604740,0.155964
1.280404,-0.603638,0.147020
1.279464,-0.603039,0.138204
1.281837,-0.604549,0.129775
1.282487,-0.604963,0.121146
1.283091,-0.605347,0.112512
1.287017,-0.607845,0.104167
1.287534,-0.608174,0.095501
1.288006,-0.608474,0.086830
1.288433,-0.608746,0.078156
1.289658,-0.609525,0.069529
1.289996,-0.609740,0.060844
1.290288,-0.609926,0.052156
1.290536,-0.610083,0.043466
1.290738,-0.610212,0.034775
1.290052,-0.609776,0.026064
1.290164,-0.609847,0.017376
1.291076,-0.610427,0.008695
1.297848,-0.614736,0.000000
1.297825,-0.614721,-0.008744
1.283532,-0.608616,0.173823
1.281898,-0.607572,0.164824
1.279377,-0.605962,0.155744
1.275131,-0.603250,0.146499
1.275867,-0.603720,0.137910
1.279914,-0.606305,0.129684
1.277204,-0.604574,0.120717
1.277806,-0.604959,0.112113
1.278364,-0.605315,0.103505
1.278877,-0.605643,0.094894
1.279345,-0.605942,0.086278
1.281452,-0.607288,0.077770
1.287724,-0.611294,0.069480
1.288903,-0.612047,0.060844
1.289195,-0.612233,0.052156
1.287757,-0.611315,0.043405
1.287959,-0.611444,0.034726
1.286431,-0.610468,0.026009
1.286543,-0.610540,0.017340
1.286611,-0.610583,0.008670
1.287476,-0.611135,0.000000
1.290824,-0.613274,-0.008701
1.283277,-0.611447,0.173946
1.279973,-0.609329,0.164707
1.279128,-0.608787,0.155854
1.279911,-0.609289,0.147228
1.280649,-0.609762,0.138596
1.281342,-0.610207,0.129959
1.276959,-0.607396,0.120803
1.278118,-0.608139,0.103579
1.278631,-0.608468,0.094961
1.284140,-0.612001,0.086708
1.290832,-0.616292,0.069725
1.291170,-0.616509,0.061015
1.295668,-0.619393,0.052487
1.291710,-0.616855,0.043589
1.291913,-0.616985,0.034873
1.287020,-0.613848,0.026046
1.287133,-0.613920,0.017364
1.287200,-0.613963,0.008682
1.289748,-0.615597,0.000000
1.289725,-0.615582,-0.008701
1.279126,-0.613053,0.182339
1.277542,-0.612032,0.173334
1.276744,-0.611517,0.164475
1.275064,-0.610434,0.155524
1.278351,-0.612554,0.147228
1.274070,-0.609793,0.138008
1.274760,-0.610238,0.129408
1.277079,-0.611733,0.120974
1.283545,-0.615903,0.112910
1.279914,-0.613562,0.103873
1.284620,-0.616596,0.095568
1.285091,-0.616900,0.086891
1.288034,-0.618798,0.078377
1.284218,-0.616337,0.069431
1.285394,-0.617095,0.060801
1.285685,-0.617283,0.052119
1.285931,-0.617442,0.043436
1.285293,-0.617030,0.034726
1.286290,-0.617673,0.026064
1.288082,-0.618829,0.017401
1.285628,-0.617247,0.008682
1.288172,-0.618887,0.000000
1.290671,-0.620498,-0.008719
1.290603,-0.620455,-0.017438
1.277973,-0.615452,0.182339
1.276391,-0.614428,0.173334
1.276428,-0.614451,0.164591
1.277254,-0.614986,0.155964
1.278035,-0.615492,0.147332
1.270418,-0.610560,0.137714
1.272776,-0.612087,0.129316
1.273420,-0.612504,0.120717
1.275693,-0.613976,0.112273
1.276249,-0.614336,0.103652
1.283461,-0.619005,0.095568
1.284234,-0.619506,0.060801
1.284524,-0.619694,0.052119
1.288965,-0.622570,0.043589
1.284972,-0.619984,0.034750
1.289325,-0.622802,0.026156
1.289437,-0.622875,0.017438
1.291183,-0.624006,0.008731
1.291206,-0.624020,0.000000
1.293701,-0.625636,-0.008750
1.296991,-0.627766,-0.017548
1.281590,-0.621173,0.191912
1.276736,-0.618016,0.182339
1.277651,-0.618612,0.173701
1.278522,-0.619178,0.165056
1.281849,-0.621342,0.156736
1.280132,-0.620225,0.147749
1.283372,-0.622332,0.139380
1.281562,-0.621155,0.130419
1.279705,-0.619947,0.121489
1.279472,-0.619796,0.112751
1.280030,-0.620159,0.104094
1.276361,-0.617773,0.095096
1.276828,-0.618076,0.086462
1.278088,-0.618895,0.077880
1.278466,-0.619141,0.069234
1.278800,-0.619359,0.060586
1.282440,-0.621726,0.052082
1.282686,-0.621886,0.043405
1.284563,-0.623107,0.034775
1.284719,-0.623208,0.026082
1.285669,-0.623826,0.017401
1.284898,-0.623325,0.008695
1.284921,-0.623339,0.000000
1.286575,-0.624415,-0.008707
1.288184,-0.625462,-0.017438
1.286299,-0.627229,0.192854
1.281454,-0.624066,0.183238
1.282373,-0.624666,0.174558
1.281585,-0.624151,0.165638
1.284078,-0.625779,0.157177
1.284448,-0.626021,0.122090
1.280044,-0.623146,0.112910
1.280602,-0.623510,0.104241
1.276103,-0.620573,0.095163
1.273227,-0.618695,0.086278
1.273648,-0.618970,0.077660
1.274025,-0.619216,0.069038
1.274357,-0.619433,0.060414
1.273809,-0.619075,0.051751
1.276563,-0.620873,0.043221
1.277600,-0.621550,0.034603
1.280267,-0.623291,0.026009
1.280379,-0.623364,0.017340
1.287144,-0.627781,0.008719
1.287166,-0.627796,0.000000
1.280850,-0.626695,0.201001
1.280202,-0.626270,0.192047
1.280336,-0.626358,0.183238
1.280424,-0.626415,0.174435
1.282127,-0.627532,0.165870
1.280463,-0.626441,0.156846
1.279582,-0.625863,0.147957
1.279486,-0.625801,0.139184
1.278513,-0.625163,0.130327
1.278326,-0.625040,0.121575
1.279761,-0.625981,0.112990
1.281987,-0.627440,0.104462
1.280832,-0.626683,0.095635
1.281300,-0.626990,0.086953
1.281724,-0.627268,0.078267
1.282104,-0.627517,0.069578
1.282439,-0.627736,0.060886
1.270192,-0.619709,0.051641
1.273779,-0.622060,0.043159
1.289185,-0.632158,0.026230
1.281770,-0.627298,0.017376
1.287692,-0.631179,0.008731
1.289387,-0.632290,0.000000
1.289364,-0.632275,-0.008744
1.289297,-0.632231,-0.017487
1.280568,-0.629502,0.201141
1.276610,-0.626897,0.191643
1.275913,-0.626439,0.182724
1.278486,-0.628132,0.174313
1.279357,-0.628705,0.165638
1.280184,-0.629249,0.156956
1.278473,-0.628124,0.147957
1.283367,-0.631343,0.139772
1.279901,-0.629063,0.130603
1.278884,-0.628394,0.121746
1.277820,-0.627694,0.112910
1.278377,-0.628060,0.104241
1.278055,-0.627849,0.095501
1.279357,-0.628705,0.086891
1.279780,-0.628983,0.078212
1.280993,-0.629781,0.069578
1.275485,-0.626157,0.060586
1.272434,-0.624150,0.051788
1.272677,-0.624310,0.043159
1.272876,-0.624441,0.034530
1.273031,-0.624543,0.025898
1.283166,-0.631211,0.017413
1.279620,-0.631911,0.192316
1.279755,-0.632000,0.183495
1.278188,-0.630965,0.174435
1.279059,-0.631540,0.165754
1.279885,-0.632086,0.157067
1.283157,-0.634247,0.148686
1.281405,-0.633089,0.139674
1.287083,-0.636840,0.131522
1.295216,-0.642212,0.123548
1.288340,-0.637670,0.114026
1.286405,-0.636392,0.105050
1.287391,-0.637044,0.087566
1.281152,-0.632922,0.078377
1.281531,-0.633173,0.069676
1.279364,-0.631742,0.060844
1.278820,-0.631382,0.052119
1.279064,-0.631544,0.043436
1.267586,-0.623962,0.034407
1.267741,-0.624064,0.025806
1.275360,-0.629097,0.017315
1.264579,-0.621976,0.008578
1.275448,-0.629155,0.000000
1.281267,-0.632999,-0.008701
1.282035,-0.633506,-0.017413
1.291100,-0.639494,-0.026322
1.274287,-0.632744,0.209384
1.275335,-0.633440,0.200719
1.276339,-0.634106,0.192047
1.278124,-0.635292,0.183495
1.279040,-0.635901,0.174802
1.282393,-0.638128,0.166452
1.280738,-0.637028,0.157397
1.274892,-0.633146,0.147853
1.275626,-0.633633,0.139184
1.282121,-0.637947,0.131154
1.276960,-0.634519,0.121832
1.278391,-0.635470,0.113229
1.283931,-0.639150,0.104977
1.285277,-0.640044,0.096310
1.279927,-0.636490,0.087137
1.286172,-0.640638,0.078819
1.287426,-0.641471,0.043804
1.271805,-0.631095,0.034579
1.271960,-0.631198,0.025935
1.267906,-0.628505,0.017229
1.265473,-0.626889,0.008596
1.267994,-0.628563,0.000000
1.276301,-0.634082,-0.008676
1.276235,-0.634038,-0.017352
1.279455,-0.636177,-0.026101
1.269134,-0.632084,0.208651
1.270178,-0.632780,0.200016
1.271177,-0.633446,0.191374
1.274607,-0.635733,0.183110
1.278823,-0.638543,0.174925
1.282175,-0.640777,0.157728
1.283785,-0.641851,0.149102
1.284524,-0.642343,0.140361
1.284390,-0.642254,0.131522
1.285039,-0.642686,0.122776
1.283985,-0.641984,0.113866
1.281224,-0.640144,0.104830
1.281737,-0.640486,0.096108
1.279714,-0.639137,0.087198
1.280137,-0.639419,0.078488
1.283009,-0.641333,0.069921
1.285837,-0.643219,0.061316
1.276150,-0.636761,0.052119
1.276394,-0.636924,0.043436
1.273266,-0.634839,0.034652
1.273421,-0.634942,0.025990
1.272700,-0.634461,0.017315
1.271934,-0.633951,0.008652
1.269460,-0.632301,0.000000
1.271934,-0.633951,-0.008652
1.271868,-0.633906,-0.017303
1.275003,-0.639374,0.218806
1.275275,-0.639555,0.209971
1.275501,-0.639707,0.201141
1.277327,-0.640930,0.192585
1.277463,-0.641020,0.183752
1.278378,-0.641633,0.175047
1.274296,-0.638900,0.165638
1.275119,-0.639451,0.156956
1.275897,-0.639972,0.148269
1.275804,-0.639909,0.139478
1.277320,-0.640925,0.130878
1.278793,-0.641911,0.122261
1.278566,-0.641759,0.113468
1.279951,-0.642686,0.104830
1.281292,-0.643584,0.096175
1.284249,-0.645563,0.087627
1.282184,-0.644181,0.078708
1.282563,-0.644435,0.069971
1.285388,-0.646326,0.061359
1.279866,-0.642629,0.052340
1.278449,-0.641681,0.043558
1.280311,-0.642927,0.034898
1.289605,-0.649149,0.026377
1.278085,-0.641437,0.017413
1.278151,-0.641481,0.008707
1.276512,-0.640383,0.000000
1.276489,-0.640369,-0.008695
1.276423,-0.640324,-0.017389
1.284621,-0.645812,-0.026266
1.278779,-0.644961,0.219722
1.274950,-0.642388,0.210118
1.267780,-0.637569,0.200016
1.268777,-0.638239,0.191374
1.269729,-0.638879,0.182724
1.270638,-0.639490,0.174068
1.271502,-0.640071,0.165405
1.272323,-0.640622,0.156736
1.273099,-0.641144,0.148061
1.273831,-0.641636,0.139380
1.273692,-0.641542,0.130603
1.274335,-0.641975,0.121918
1.274106,-0.641821,0.113149
1.275488,-0.642750,0.104535
1.275170,-0.642536,0.095770
1.275636,-0.642849,0.087075
1.283516,-0.648145,0.078874
1.283895,-0.648400,0.070118
1.282571,-0.647510,0.061273
1.282861,-0.647705,0.052524
1.282277,-0.647312,0.043742
1.282477,-0.647447,0.034996
1.283463,-0.648109,0.026266
1.277765,-0.644280,0.017426
1.277832,-0.644325,0.008713
1.277024,-0.643782,0.000000
1.277002,-0.643767,-0.008707
1.276935,-0.643722,-0.017413
1.279314,-0.645321,-0.026174
1.271888,-0.643379,0.218653
1.272978,-0.644114,0.209971
1.274024,-0.644820,0.201282
1.275026,-0.645496,0.192585
1.274339,-0.645032,0.183624
1.275251,-0.645648,0.174925
1.267062,-0.640123,0.164940
1.267879,-0.640674,0.156295
1.268652,-0.641195,0.147644
1.280106,-0.648923,0.140263
1.281444,-0.649825,0.122776
1.277914,-0.647444,0.113627
1.273510,-0.644473,0.104462
1.274019,-0.644816,0.095770
1.274484,-0.645130,0.087075
1.274905,-0.645414,0.078377
1.275281,-0.645668,0.069676
1.275614,-0.645892,0.060972
1.275073,-0.645527,0.052229
1.276145,-0.646251,0.043558
1.280488,-0.649181,0.034971
1.280644,-0.649286,0.026230
1.280755,-0.649361,0.017487
1.280822,-0.649406,0.008744
1.269238,-0.641591,0.000000
1.269216,-0.641576,-0.008658
1.269150,-0.641532,-0.017315
1.280644,-0.649286,-0.026230
1.280488,-0.649181,-0.034971
1.276156,-0.649287,0.228597
1.274841,-0.648396,0.219417
1.269381,-0.644699,0.209531
1.270424,-0.645405,0.200860
1.271422,-0.646081,0.192181
1.269913,-0.645059,0.183110
1.269999,-0.645117,0.174313
1.270863,-0.645702,0.165638
1.272505,-0.646815,0.157067
1.273281,-0.647340,0.148373
1.269069,-0.644487,0.139086
1.269754,-0.644951,0.130419
1.280293,-0.652089,0.122776
1.275943,-0.649143,0.113547
1.269892,-0.645044,0.104241
1.277008,-0.649864,0.096108
1.286163,-0.656064,0.079205
1.286543,-0.656322,0.070412
1.286878,-0.656549,0.061616
1.287169,-0.656746,0.052818
1.284932,-0.655231,0.043926
1.283478,-0.654246,0.035094
1.280322,-0.652109,0.026248
1.280434,-0.652184,0.017499
1.280500,-0.652229,0.008750
1.281350,-0.652805,0.000000
1.284573,-0.654987,-0.017561
1.284462,-0.654912,-0.026340
1.272484,-0.651211,0.237145
1.270400,-0.649792,0.227803
1.271534,-0.650563,0.219111
1.272623,-0.651305,0.210412
1.269576,-0.649230,0.201001
1.270573,-0.649910,0.192316
1.268248,-0.648326,0.183110
1.266694,-0.647267,0.174068
1.266734,-0.647295,0.165289
1.267550,-0.647851,0.156626
1.269144,-0.648936,0.148061
1.269051,-0.648873,0.139282
1.269735,-0.649339,0.130603
1.276140,-0.653700,0.122519
1.277563,-0.654669,0.113866
1.277294,-0.654486,0.105050
1.277805,-0.654834,0.096310
1.279096,-0.655713,0.087627
1.279518,-0.656001,0.078874
1.279070,-0.655696,0.070069
1.282707,-0.658172,0.061488
1.282996,-0.658370,0.052708
1.283241,-0.658536,0.043926
1.280963,-0.656985,0.035069
1.283598,-0.658779,0.026358
1.288668,-0.662232,0.017646
1.288735,-0.662278,0.008823
1.288758,-0.662293,0.000000
1.287015,-0.661106,-0.017622
1.285251,-0.659905,-0.026395
1.286747,-0.660924,-0.035241
1.286546,-0.660787,-0.044049
1.275502,-0.656046,0.237970
1.275871,-0.656298,0.229073
1.277009,-0.657076,0.220334
1.270753,-0.652801,0.210265
1.271796,-0.653514,0.201563
1.274707,-0.655503,0.166568
1.275529,-0.656065,0.157838
1.276307,-0.656596,0.149102
1.272931,-0.654289,0.139870
1.273618,-0.654759,0.131154
1.270970,-0.652949,0.122090
1.270743,-0.652794,0.113308
1.271295,-0.653171,0.104609
1.271803,-0.653519,0.095905
1.272267,-0.653835,0.087198
1.272687,-0.654122,0.078488
1.275536,-0.656070,0.069921
1.275868,-0.656296,0.061187
1.276156,-0.656493,0.052450
1.276400,-0.656660,0.043712
1.280726,-0.659616,0.035094
1.280882,-0.659722,0.026322
1.278516,-0.658106,0.017511
1.281059,-0.659844,0.008774
1.281082,-0.659859,0.000000
1.281059,-0.659844,-0.008774
1.280993,-0.659798,-0.017548
1.283358,-0.661415,-0.026377
1.283202,-0.661308,-0.035168
1.283827,-0.661735,-0.043988
1.265660,-0.652718,0.245159
1.266878,-0.653554,0.236485
1.266425,-0.653243,0.227485
1.269184,-0.655136,0.219111
1.271901,-0.657001,0.210705
1.272945,-0.657718,0.201985
1.270677,-0.656161,0.192720
1.274900,-0.659060,0.184523
1.272539,-0.657439,0.175292
1.270947,-0.656346,0.166219
1.274224,-0.658596,0.157838
1.264245,-0.651747,0.138988
1.274779,-0.658976,0.131430
1.275421,-0.659417,0.122690
1.272732,-0.657572,0.113627
1.267529,-0.654001,0.104388
1.270503,-0.656042,0.095905
1.270967,-0.656360,0.087198
1.274679,-0.658908,0.078708
1.276702,-0.660296,0.070069
1.280329,-0.662785,0.061488
1.280618,-0.662984,0.052708
1.279214,-0.662020,0.043865
1.279414,-0.662157,0.035094
1.277096,-0.660567,0.026266
1.277207,-0.660643,0.017511
1.277273,-0.660688,0.008756
1.277295,-0.660704,0.000000
1.280571,-0.662952,-0.008780
1.281329,-0.663472,-0.017573
1.281218,-0.663396,-0.026358
1.282711,-0.664420,-0.035192
1.284983,-0.665979,-0.044080
1.271793,-0.660012,0.246698
1.273017,-0.660856,0.237970
1.270946,-0.659429,0.228597
1.269637,-0.658527,0.219417
1.270724,-0.659276,0.210705
1.271766,-0.659994,0.201985
1.270317,-0.658996,0.192854
1.273719,-0.661340,0.184523
1.272178,-0.660277,0.175415
1.269771,-0.658619,0.166219
1.271407,-0.659746,0.157618
1.272181,-0.660280,0.148894
1.270453,-0.659089,0.139870
1.271138,-0.659561,0.131154
1.270958,-0.659437,0.122347
1.271554,-0.659848,0.113627
1.271285,-0.659662,0.104830
1.271793,-0.660012,0.096108
1.272256,-0.660331,0.087382
1.272676,-0.660620,0.078653
1.273051,-0.660879,0.069921
1.271737,-0.659974,0.061101
1.272023,-0.660171,0.052377
1.280497,-0.666009,0.043957
1.274934,-0.662177,0.034996
1.275089,-0.662283,0.026248
1.276023,-0.662927,0.017511
1.285971,-0.669780,0.008830
1.276111,-0.662988,0.000000
1.280207,-0.665809,-0.008787
1.280140,-0.665763,-0.017573
1.280029,-0.665686,-0.026358
1.279874,-0.665579,-0.035143
1.281320,-0.666576,-0.043988
1.274501,-0.666302,0.256656
1.270104,-0.663256,0.246698
1.266461,-0.660733,0.236980
1.272505,-0.664919,0.229232
1.267952,-0.661766,0.219417
1.269037,-0.662517,0.210705
1.270078,-0.663238,0.201985
1.271074,-0.663929,0.193258
1.272027,-0.664589,0.184523
1.272120,-0.664653,0.175659
1.272984,-0.665251,0.166917
1.273804,-0.665819,0.158169
1.272944,-0.665224,0.149206
1.272039,-0.664597,0.140263
1.272724,-0.665071,0.131522
1.270908,-0.663814,0.122519
1.271505,-0.664227,0.113787
1.268777,-0.662337,0.104756
1.268463,-0.662120,0.095973
1.267285,-0.661303,0.087137
1.267702,-0.661593,0.078432
1.268076,-0.661851,0.069725
1.268405,-0.662080,0.061015
1.276085,-0.667399,0.052634
1.285366,-0.673828,0.044202
1.281458,-0.671121,0.035241
1.276682,-0.667813,0.026322
1.281725,-0.671306,0.017622
1.281813,-0.671367,0.000000
1.280969,-0.670783,-0.008805
1.283368,-0.672445,-0.017646
1.283257,-0.672368,-0.026469
1.283102,-0.672260,-0.035290
1.286188,-0.674398,-0.044233
1.269223,-0.665855,0.255771
1.270490,-0.666736,0.247040
1.270093,-0.666460,0.237970
1.269648,-0.666151,0.228915
1.270779,-0.666937,0.220181
1.271867,-0.667693,0.211439
1.272097,-0.667853,0.202548
1.273095,-0.668548,0.193796
1.273235,-0.668645,0.184909
1.274145,-0.669277,0.176149
1.275010,-0.669879,0.167383
1.275831,-0.670450,0.158610
1.276608,-0.670990,0.149831
1.277340,-0.671500,0.141047
1.276394,-0.670842,0.132073
1.277037,-0.671289,0.123291
1.279009,-0.672661,0.105786
1.268872,-0.665610,0.096108
1.269334,-0.665932,0.087382
1.269752,-0.666223,0.078653
1.269306,-0.665913,0.069872
1.270456,-0.666713,0.061187
1.269922,-0.666341,0.052413
1.275908,-0.670504,0.043896
1.276107,-0.670643,0.035118
1.279546,-0.673034,0.026414
1.279657,-0.673111,0.017610
1.283828,-0.676012,0.008836
1.279745,-0.673172,0.000000
1.281365,-0.674299,-0.008817
1.279657,-0.673111,-0.017610
1.280367,-0.673604,-0.026432
1.280211,-0.673496,-0.035241
1.280832,-0.673928,-0.044080
1.282229,-0.674899,-0.052966
1.267396,-0.668022,0.264676
1.267092,-0.667810,0.255594
1.268356,-0.668693,0.246869
1.265532,-0.666721,0.237310
1.266704,-0.667539,0.228597
1.266212,-0.667195,0.219570
1.268916,-0.669084,0.211145
1.269957,-0.669811,0.202407
1.273390,-0.672208,0.194065
1.274344,-0.672875,0.185294
1.276068,-0.674079,0.176639
1.276120,-0.674115,0.167731
1.270423,-0.670136,0.158059
1.265488,-0.666690,0.148582
1.271925,-0.671185,0.140557
1.270977,-0.670524,0.131614
1.271618,-0.670971,0.122862
1.273848,-0.672528,0.114265
1.279307,-0.676341,0.105933
1.274909,-0.673270,0.096715
1.277829,-0.675309,0.088118
1.278250,-0.675603,0.079316
1.278627,-0.675866,0.070510
1.274045,-0.672666,0.061445
1.274332,-0.672866,0.052671
1.270477,-0.670174,0.043742
1.270676,-0.670313,0.034996
1.270010,-0.669848,0.026230
1.270120,-0.669925,0.017487
1.270186,-0.669971,0.008744
1.270208,-0.669986,0.000000
1.270186,-0.669971,-0.008744
1.279137,-0.676222,-0.017622
1.279846,-0.676718,-0.026450
1.282970,-0.678899,-0.035364
1.282769,-0.678759,-0.044202
1.284983,-0.680305,-0.053150
1.261369,-0.666903,0.263577
1.262671,-0.667816,0.254886
1.263124,-0.668133,0.246014
1.265145,-0.669550,0.237475
1.266317,-0.670371,0.228756
1.267444,-0.671161,0.220028
1.275007,-0.676464,0.212466
1.276053,-0.677197,0.203673
1.273808,-0.675623,0.194335
1.274763,-0.676292,0.185551
1.275673,-0.676930,0.176761
1.274912,-0.676397,0.167731
1.271664,-0.674120,0.158389
1.270809,-0.673520,0.149415
1.271537,-0.674031,0.140655
1.275483,-0.676798,0.132257
1.276126,-0.677248,0.123462
1.279989,-0.679956,0.114982
1.281361,-0.680918,0.106227
1.281873,-0.681277,0.097389
1.281522,-0.681031,0.088486
1.280310,-0.680181,0.079536
1.280687,-0.680446,0.070707
1.271203,-0.673797,0.061359
1.273944,-0.675719,0.052708
1.278279,-0.678758,0.044080
1.278479,-0.678897,0.035266
1.274540,-0.676136,0.026358
1.274651,-0.676214,0.017573
1.268985,-0.672242,0.008744
1.269007,-0.672257,0.000000
1.268985,-0.672242,-0.008744
1.275469,-0.676788,-0.017585
1.275359,-0.676710,-0.026377
1.280934,-0.680619,-0.035339
1.284008,-0.682774,-0.044294
1.272249,-0.677617,0.266323
1.268734,-0.675144,0.256479
1.262747,-0.670931,0.246185
1.263960,-0.671785,0.237475
1.265130,-0.672608,0.228756
1.263831,-0.671694,0.219570
1.264102,-0.671885,0.210705
1.265138,-0.672613,0.201985
1.266129,-0.673311,0.193258
1.267077,-0.673978,0.184523
1.267981,-0.674614,0.175782
1.268841,-0.675219,0.167034
1.269658,-0.675794,0.158279
1.275310,-0.679771,0.150143
1.271972,-0.677422,0.140851
1.272657,-0.677904,0.132073
1.273298,-0.678355,0.123291
1.273894,-0.678775,0.114504
1.274447,-0.679164,0.105712
1.273323,-0.678373,0.096782
1.278684,-0.682146,0.088363
1.279106,-0.682442,0.079536
1.279483,-0.682708,0.070707
1.276017,-0.680269,0.052855
1.276260,-0.680440,0.044049
1.276459,-0.680580,0.035241
1.270073,-0.676086,0.026285
1.268547,-0.675012,0.017499
1.275155,-0.679663,0.008799
1.275177,-0.679678,0.000000
1.275155,-0.679663,-0.008799
1.275089,-0.679616,-0.017597
1.275797,-0.680114,-0.026414
1.282182,-0.684607,-0.035413
1.281982,-0.684467,-0.044264
1.270231,-0.679325,0.266140
1.270739,-0.679684,0.257187
1.272006,-0.680578,0.248408
1.266784,-0.676890,0.238299
1.267150,-0.677148,0.229391
1.262628,-0.673954,0.219570
1.266130,-0.676428,0.211292
1.265550,-0.676018,0.202267
1.264113,-0.675003,0.193123
1.267490,-0.677388,0.184780
1.268394,-0.678027,0.176027
1.269254,-0.678634,0.167266
1.270070,-0.679211,0.158500
1.271655,-0.680330,0.149831
1.271571,-0.680271,0.140949
1.272255,-0.680755,0.132165
1.273709,-0.681782,0.123462
1.273492,-0.681628,0.114583
1.274044,-0.682018,0.105786
1.272923,-0.681226,0.096849
1.273386,-0.681553,0.088057
1.273805,-0.681849,0.079260
1.273365,-0.681538,0.070412
1.272879,-0.681195,0.061573
1.273166,-0.681398,0.052782
1.274225,-0.682146,0.044018
1.274423,-0.682286,0.035217
1.272944,-0.681241,0.026377
1.274688,-0.682473,0.017610
1.274754,-0.682520,0.008805
1.274776,-0.682535,0.000000
1.274754,-0.682520,-0.008805
1.274688,-0.682473,-0.017610
1.268861,-0.678357,-0.026285
1.279123,-0.685606,-0.044202
1.278879,-0.685434,-0.053039
1.266339,-0.681035,0.274717
1.266890,-0.681426,0.265774
1.262581,-0.678366,0.255771
1.266248,-0.680971,0.247553
1.267465,-0.681835,0.238794
1.265418,-0.680381,0.229391
1.266543,-0.681180,0.220639
1.263593,-0.679085,0.211145
1.264627,-0.679819,0.202407
1.265618,-0.680523,0.193662
1.266565,-0.681195,0.184909
1.269086,-0.682986,0.176394
1.273186,-0.685898,0.168080
1.273194,-0.685904,0.159161
1.273158,-0.685878,0.150248
1.273887,-0.686396,0.141439
1.274573,-0.686883,0.132625
1.270340,-0.683877,0.123291
1.270935,-0.684299,0.114504
1.271486,-0.684690,0.105712
1.272806,-0.685628,0.096984
1.274083,-0.686535,0.088241
1.274503,-0.686833,0.079426
1.274064,-0.686521,0.070559
1.271951,-0.685021,0.061616
1.272237,-0.685224,0.052818
1.272479,-0.685396,0.044018
1.272678,-0.685537,0.035217
1.272832,-0.685646,0.026414
1.272942,-0.685724,0.017610
1.273008,-0.685771,0.008805
1.273030,-0.685787,0.000000
1.269747,-0.683455,-0.008780
1.269681,-0.683408,-0.017561
1.261419,-0.677541,-0.026156
1.269417,-0.683221,-0.035118
1.269220,-0.683081,-0.043896
1.277126,-0.688696,-0.053039
1.261447,-0.680377,0.282881
1.261240,-0.680229,0.273771
1.261785,-0.680618,0.264859
1.263087,-0.681546,0.256125
1.265147,-0.683014,0.247553
1.264756,-0.682735,0.238464
1.264318,-0.682423,0.229391
1.265442,-0.683224,0.220639
1.265717,-0.683420,0.211732
1.266753,-0.684158,0.202970
1.268552,-0.685441,0.194335
1.259810,-0.679211,0.184009
1.260708,-0.679850,0.175292
1.275312,-0.690258,0.168546
1.265610,-0.683344,0.158279
1.266379,-0.683892,0.149519
1.267104,-0.684409,0.140753
1.274273,-0.689517,0.132717
1.272480,-0.688240,0.123634
1.273076,-0.688664,0.114822
1.272003,-0.687900,0.105859
1.273323,-0.688840,0.097119
1.272973,-0.688591,0.088241
1.272579,-0.688310,0.079371
1.272140,-0.687997,0.070510
1.273284,-0.688813,0.061745
1.273571,-0.689017,0.052929
1.271371,-0.687449,0.044018
1.271569,-0.687590,0.035217
1.271019,-0.687198,0.017597
1.271085,-0.687245,0.008799
1.271921,-0.687841,0.000000
1.271899,-0.687826,-0.008805
1.269390,-0.686038,-0.017573
1.269280,-0.685959,-0.026358
1.269127,-0.685850,-0.035143
1.268929,-0.685709,-0.043926
1.268688,-0.685537,-0.052708
1.270030,-0.686493,-0.061573
1.259282,-0.682337,0.282686
1.260670,-0.683331,0.273961
1.262015,-0.684294,0.265225
1.263317,-0.685225,0.256479
1.261370,-0.683832,0.247040
1.262581,-0.684698,0.238299
1.262945,-0.684959,0.229391
1.264068,-0.685763,0.220639
1.259516,-0.682505,0.210852
1.260547,-0.683242,0.202126
1.261533,-0.683949,0.193392
1.262477,-0.684624,0.184652
1.263376,-0.685267,0.175904
1.265040,-0.686458,0.167266
1.265852,-0.687040,0.158500
1.270665,-0.690484,0.150248
1.271393,-0.691005,0.141439
1.272887,-0.692074,0.132717
1.273527,-0.692532,0.123891
1.274934,-0.693539,0.115141
1.272242,-0.691612,0.106007
1.275994,-0.694298,0.097456
1.274024,-0.692887,0.088425
1.274443,-0.693187,0.079592
1.274006,-0.692874,0.070707
1.275149,-0.693693,0.061917
1.273811,-0.692735,0.053002
1.274053,-0.692908,0.044172
1.274251,-0.693050,0.035339
1.277658,-0.695488,0.026579
1.273703,-0.692658,0.017659
1.277835,-0.695615,0.008860
1.282536,-0.698980,-0.026690
1.264496,-0.686069,-0.035045
1.264299,-0.685928,-0.043804
1.264059,-0.685756,-0.052561
1.275149,-0.693693,-0.061917
1.262853,-0.687994,0.283856
1.264246,-0.688995,0.275095
1.265595,-0.689964,0.266323
1.268499,-0.692050,0.257895
1.269762,-0.692958,0.249091
1.270982,-0.693833,0.240278
1.271683,-0.694337,0.222320
1.266342,-0.690501,0.212319
1.265770,-0.690090,0.203251
1.268371,-0.691958,0.194738
1.266903,-0.690904,0.185551
1.263775,-0.688657,0.176149
1.263825,-0.688692,0.167266
1.264636,-0.689275,0.158500
1.262173,-0.687506,0.149310
1.262087,-0.687444,0.140459
1.263574,-0.688512,0.131797
1.265018,-0.689550,0.123119
1.264801,-0.689393,0.114265
1.266158,-0.690368,0.105565
1.269093,-0.692477,0.096984
1.274418,-0.696302,0.088547
1.277271,-0.698351,0.079868
1.277646,-0.698621,0.071001
1.275544,-0.697111,0.062003
1.274208,-0.696151,0.053076
1.274450,-0.696325,0.044233
1.274648,-0.696467,0.035388
1.274803,-0.696578,0.026543
1.274913,-0.696657,0.017696
1.274979,-0.696705,0.008848
1.273377,-0.695554,0.000000
1.273355,-0.695538,-0.008836
1.266792,-0.690824,-0.017573
1.265870,-0.690162,-0.026340
1.273025,-0.695301,-0.035339
1.272015,-0.694576,-0.044141
1.271773,-0.694402,-0.052966
1.261635,-0.690225,0.283856
1.262230,-0.690654,0.274906
1.263576,-0.691624,0.266140
1.264879,-0.692564,0.257364
1.266138,-0.693472,0.248579
1.264153,-0.692041,0.239124
1.265322,-0.692883,0.230344
1.262438,-0.690804,0.220792
1.267527,-0.694473,0.212759
1.273827,-0.699015,0.177863
1.268245,-0.694991,0.168080
1.269060,-0.695578,0.159271
1.265797,-0.693226,0.149935
1.266521,-0.693748,0.141145
1.262356,-0.690744,0.131797
1.267839,-0.694698,0.123548
1.268432,-0.695125,0.114743
1.264127,-0.692022,0.105492
1.266249,-0.693551,0.096849
1.271567,-0.697386,0.088425
1.273605,-0.698855,0.079702
1.271549,-0.697373,0.070707
1.273500,-0.698779,0.061960
1.273786,-0.698986,0.053113
1.274028,-0.699161,0.044264
1.274227,-0.699304,0.035413
1.274381,-0.699415,0.026561
1.274491,-0.699494,0.017708
1.275368,-0.700127,0.008860
1.277013,-0.701312,0.000000
1.277802,-0.701881,-0.008879
1.276924,-0.701249,-0.017745
1.275192,-0.700000,-0.026579
1.275038,-0.699888,-0.035438
1.274839,-0.699745,-0.044294
1.274597,-0.699570,-0.053150
1.261788,-0.693486,0.275095
1.263133,-0.694460,0.266323
1.262841,-0.694248,0.257187
1.264097,-0.695158,0.248408
1.265310,-0.696036,0.239619
1.266479,-0.696882,0.230821
1.267605,-0.697696,0.222014
1.265481,-0.696159,0.212612
1.266516,-0.696909,0.203814
1.262691,-0.694140,0.194200
1.263635,-0.694823,0.185423
1.262926,-0.694310,0.176394
1.266195,-0.696676,0.167964
1.267008,-0.697265,0.159161
1.267777,-0.697821,0.150352
1.266084,-0.696596,0.141243
1.266765,-0.697088,0.132441
1.267401,-0.697549,0.123634
1.267994,-0.697978,0.114822
1.268542,-0.698375,0.106007
1.271472,-0.700495,0.097389
1.271934,-0.700830,0.088547
1.272352,-0.701132,0.079702
1.272727,-0.701403,0.070854
1.273057,-0.701642,0.062003
1.273343,-0.701849,0.053150
1.273585,-0.702025,0.044294
1.270544,-0.699824,0.035339
1.270698,-0.699935,0.026506
1.272428,-0.701187,0.017696
1.273304,-0.701821,0.008854
1.273326,-0.701837,0.000000
1.273304,-0.701821,-0.008854
1.272428,-0.701187,-0.017696
1.273938,-0.702280,-0.026579
1.272974,-0.701582,-0.035413
1.272776,-0.701439,-0.044264
1.263174,-0.699043,0.275851
1.264521,-0.700023,0.267055
1.265028,-0.700393,0.258072
1.266287,-0.701308,0.249262
1.260324,-0.696969,0.238959
1.261488,-0.697816,0.230185
1.262608,-0.698632,0.221403
1.263685,-0.699415,0.212612
1.265519,-0.700749,0.203954
1.266509,-0.701470,0.195142
1.265049,-0.700408,0.185937
1.265147,-0.700479,0.177006
1.264398,-0.699934,0.167964
1.265209,-0.700524,0.159161
1.265173,-0.700498,0.150248
1.262678,-0.698682,0.141047
1.264966,-0.700347,0.132441
1.265601,-0.700809,0.123634
1.266193,-0.701240,0.114822
1.266740,-0.701638,0.106007
1.267244,-0.702005,0.097187
1.268512,-0.702927,0.088425
1.268929,-0.703231,0.079592
1.272532,-0.705853,0.070952
1.272780,-0.706033,0.035462
1.272934,-0.706145,0.026598
1.280321,-0.711520,0.017843
1.278770,-0.710392,0.008909
1.278792,-0.710408,0.000000
1.278770,-0.710392,-0.008909
1.278703,-0.710344,-0.017818
1.276168,-0.708498,-0.026671
1.276013,-0.708386,-0.035560
1.262044,-0.701082,0.275851
1.260213,-0.699745,0.266323
1.261511,-0.700693,0.257541
1.262766,-0.701609,0.248750
1.262384,-0.701330,0.239619
1.260360,-0.699852,0.230185
1.261479,-0.700669,0.221403
1.262554,-0.701454,0.212612
1.263586,-0.702208,0.203814
1.265374,-0.703513,0.195142
1.267921,-0.705373,0.186579
1.269626,-0.706618,0.177863
1.270485,-0.707245,0.169011
1.270498,-0.707254,0.160043
1.270389,-0.707175,0.142125
1.267050,-0.704737,0.132808
1.269296,-0.706377,0.124149
1.264254,-0.702695,0.114743
1.261579,-0.700742,0.105639
1.262081,-0.701108,0.096849
1.262539,-0.701443,0.088057
1.262953,-0.701746,0.079260
1.256064,-0.696716,0.070020
1.256390,-0.696953,0.061273
1.272813,-0.708945,0.053260
1.271441,-0.707943,0.044325
1.271638,-0.708087,0.035462
1.277445,-0.712326,0.026727
1.277621,-0.712455,0.008909
1.277643,-0.712471,0.000000
1.271968,-0.708328,-0.008866
1.271902,-0.708280,-0.017732
1.270985,-0.707610,-0.026579
1.271638,-0.708087,-0.035462
1.274670,-0.710300,-0.044448
1.265401,-0.707070,0.276986
1.258029,-0.701664,0.266140
1.259324,-0.702614,0.257364
1.260576,-0.703532,0.248579
1.264170,-0.706167,0.240278
1.262949,-0.705272,0.230980
1.266461,-0.707847,0.222625
1.267541,-0.708638,0.213786
1.268577,-0.709398,0.204939
1.264774,-0.706610,0.195277
1.272117,-0.711994,0.187479
1.266620,-0.707963,0.177618
1.266676,-0.708004,0.168662
1.267488,-0.708600,0.159822
1.269059,-0.709752,0.151080
1.268983,-0.709696,0.142125
1.270467,-0.710784,0.133360
1.267123,-0.708332,0.097389
1.263558,-0.705719,0.088241
1.263973,-0.706023,0.079426
1.264344,-0.706295,0.070608
1.264672,-0.706535,0.061788
1.265762,-0.707334,0.053002
1.267614,-0.708692,0.044233
1.267811,-0.708837,0.035388
1.267965,-0.708949,0.026543
1.268074,-0.709029,0.017696
1.268140,-0.709078,0.008848
1.272194,-0.712050,0.000000
1.271366,-0.711443,-0.008872
1.272106,-0.711986,-0.017757
1.272803,-0.712496,-0.026653
1.276680,-0.715339,-0.035658
1.260731,-0.706827,0.267055
1.261236,-0.707199,0.258072
1.262489,-0.708122,0.249262
1.260522,-0.706674,0.239784
1.264866,-0.709871,0.231615
1.262009,-0.707768,0.222014
1.262288,-0.707973,0.213053
1.264116,-0.709319,0.204376
1.265104,-0.710046,0.195546
1.265250,-0.710154,0.186579
1.264552,-0.709640,0.177495
1.267007,-0.711446,0.168895
1.267820,-0.712045,0.160043
1.271793,-0.714969,0.151601
1.272520,-0.715504,0.142713
1.273203,-0.716007,0.133819
1.269830,-0.713525,0.124492
1.270424,-0.713961,0.115619
1.270973,-0.714365,0.106742
1.271479,-0.714738,0.097861
1.271940,-0.715077,0.088976
1.267101,-0.711516,0.070854
1.267429,-0.711757,0.062003
1.263690,-0.709005,0.052966
1.263930,-0.709182,0.044141
1.264126,-0.709326,0.035315
1.264279,-0.709439,0.026487
1.265193,-0.710111,0.017671
1.269285,-0.713123,0.008866
1.267696,-0.711954,0.000000
1.267675,-0.711938,-0.008854
1.267609,-0.711890,-0.017708
1.273136,-0.715958,-0.026690
1.272983,-0.715844,-0.035585
1.268178,-0.715479,0.269069
1.252859,-0.704164,0.256479
1.254104,-0.705083,0.247724
1.255305,-0.705970,0.238959
1.254080,-0.705066,0.229709
1.255192,-0.705887,0.220945
1.256261,-0.706677,0.212172
1.257286,-0.707434,0.203392
1.258268,-0.708160,0.194604
1.260803,-0.710031,0.186065
1.265691,-0.713642,0.177863
1.266547,-0.714274,0.169011
1.267359,-0.714875,0.160153
1.264127,-0.712488,0.150768
1.264850,-0.713021,0.141929
1.265528,-0.713522,0.133084
1.267766,-0.715175,0.124406
1.271566,-0.717982,0.115858
1.272115,-0.718388,0.106963
1.269411,-0.716391,0.097794
1.269069,-0.716138,0.088854
1.269486,-0.716446,0.079978
1.263432,-0.711973,0.070707
1.269384,-0.716370,0.062175
1.264846,-0.713018,0.053076
1.269910,-0.716759,0.044417
1.265283,-0.713341,0.035388
1.265436,-0.713454,0.026543
1.261523,-0.710564,0.017634
1.261589,-0.710612,0.008817
1.261610,-0.710628,0.000000
1.272045,-0.718336,-0.008897
1.274392,-0.720070,-0.017831
1.263175,-0.716397,0.268336
1.254993,-0.710321,0.257364
1.256239,-0.711246,0.248579
1.257442,-0.712140,0.239784
1.258602,-0.713001,0.230980
1.259718,-0.713830,0.222167
1.270320,-0.721704,0.215107
1.261025,-0.714801,0.204376
1.258032,-0.712578,0.194873
1.258174,-0.712684,0.185937
1.259069,-0.713348,0.177128
1.259122,-0.713387,0.168197
1.260727,-0.714579,0.159492
1.263088,-0.716332,0.150872
1.263809,-0.716868,0.142027
1.264487,-0.717372,0.133176
1.267521,-0.719625,0.124578
1.268112,-0.720064,0.115699
1.265458,-0.718093,0.106521
1.269165,-0.720846,0.097929
1.266420,-0.718807,0.088792
1.266836,-0.719116,0.079923
1.267208,-0.719392,0.071050
1.267536,-0.719636,0.062175
1.263006,-0.716272,0.053076
1.263246,-0.716450,0.044233
1.260232,-0.714212,0.035290
1.260384,-0.714325,0.026469
1.260493,-0.714405,0.017646
1.260558,-0.714454,0.008823
1.260580,-0.714470,0.000000
1.263769,-0.716839,-0.008848
1.267717,-0.719771,-0.017757
1.248631,-0.708422,0.265225
1.249125,-0.708790,0.256302
1.250365,-0.709714,0.247553
1.251561,-0.710606,0.238794
1.253506,-0.712055,0.230185
1.254617,-0.712883,0.221403
1.261237,-0.717816,0.213640
1.256709,-0.714442,0.203814
1.257690,-0.715173,0.195007
1.262775,-0.718962,0.159932
1.263540,-0.719532,0.151080
1.264262,-0.720069,0.142223
1.264940,-0.720575,0.133360
1.268770,-0.723428,0.124835
1.269362,-0.723870,0.115938
1.275508,-0.728450,0.107551
1.276016,-0.728828,0.098603
1.266874,-0.722016,0.088915
1.267290,-0.722326,0.080033
1.267662,-0.722603,0.071148
1.266388,-0.721654,0.062175
1.268275,-0.723060,0.053370
1.269317,-0.723836,0.044509
1.268712,-0.723386,0.035585
1.263253,-0.719318,0.026561
1.263362,-0.719399,0.017708
1.254607,-0.712875,0.008787
1.254629,-0.712892,0.000000
1.263428,-0.719448,-0.008854
1.272984,-0.726569,-0.017855
1.254096,-0.716043,0.239619
1.254462,-0.716317,0.230662
1.255573,-0.717148,0.221862
1.256641,-0.717948,0.213053
1.256874,-0.718122,0.204095
1.255475,-0.717075,0.194873
1.256410,-0.717775,0.186065
1.259687,-0.720226,0.177618
1.260538,-0.720863,0.168778
1.262141,-0.722063,0.160043
1.270072,-0.727997,0.152122
1.271480,-0.729050,0.134279
1.272117,-0.729527,0.125350
1.271115,-0.728777,0.116257
1.267672,-0.726201,0.106963
1.268175,-0.726578,0.098063
1.268635,-0.726922,0.089160
1.269051,-0.727233,0.080254
1.269424,-0.727512,0.071344
1.269752,-0.727758,0.062432
1.267637,-0.726175,0.053407
1.266277,-0.725157,0.044448
1.264872,-0.724106,0.035511
1.261022,-0.721226,0.026543
1.255527,-0.717113,0.017610
1.255592,-0.717162,0.008805
1.255613,-0.717178,0.000000
1.257993,-0.718959,-0.008823
1.258707,-0.722712,0.249946
1.259911,-0.723616,0.241103
1.253968,-0.719153,0.230821
1.253498,-0.718800,0.221709
1.254564,-0.719601,0.212906
1.257170,-0.721558,0.204376
1.253397,-0.718724,0.194738
1.254331,-0.719426,0.185937
1.255222,-0.720095,0.177128
1.256069,-0.720731,0.168313
1.256874,-0.721335,0.159492
1.257634,-0.721906,0.150664
1.258352,-0.722445,0.141831
1.261415,-0.724746,0.133268
1.259657,-0.723425,0.124149
1.262636,-0.725662,0.115540
1.263181,-0.726072,0.106669
1.263682,-0.726449,0.097794
1.268131,-0.729789,0.089222
1.268547,-0.730102,0.080309
1.268919,-0.730381,0.071393
1.270845,-0.731828,0.062561
1.271130,-0.732042,0.053628
1.264977,-0.727421,0.044448
1.263727,-0.726482,0.026635
1.259839,-0.723562,0.017696
1.259904,-0.723611,0.008848
1.268721,-0.730233,0.000000
1.268699,-0.730216,-0.008915
1.269229,-0.733831,0.252511
1.270445,-0.734747,0.243577
1.262485,-0.728747,0.223695
1.261189,-0.727771,0.214373
1.264590,-0.730334,0.205924
1.259247,-0.726306,0.195950
1.260185,-0.727014,0.187093
1.249192,-0.718727,0.176394
1.250035,-0.719363,0.167615
1.250835,-0.719965,0.158830
1.251592,-0.720536,0.150039
1.253895,-0.722272,0.141439
1.265698,-0.731169,0.133911
1.266333,-0.731647,0.125007
1.266127,-0.731493,0.116018
1.266674,-0.731905,0.107110
1.267974,-0.732885,0.098266
1.267636,-0.732630,0.089283
1.268052,-0.732943,0.080364
1.268424,-0.733224,0.071443
1.268752,-0.733471,0.062518
1.268238,-0.733084,0.053555
1.266084,-0.731460,0.044540
1.268676,-0.733414,0.035707
1.266434,-0.731724,0.026727
1.266543,-0.731806,0.017818
1.252744,-0.726038,0.258426
1.253987,-0.726979,0.249604
1.255186,-0.727888,0.240773
1.256342,-0.728764,0.231933
1.257454,-0.729607,0.223084
1.258523,-0.730418,0.214226
1.267440,-0.737175,0.206768
1.260532,-0.731940,0.196488
1.261471,-0.732651,0.187607
1.248129,-0.722540,0.176516
1.248971,-0.723178,0.167731
1.249769,-0.723783,0.158940
1.249732,-0.723755,0.150039
1.252824,-0.726098,0.141537
1.253495,-0.726607,0.132717
1.254122,-0.727082,0.123891
1.254707,-0.727525,0.115061
1.255248,-0.727935,0.106227
1.256541,-0.728915,0.097456
1.260177,-0.731671,0.088854
1.265365,-0.735602,0.080309
1.265736,-0.735883,0.071393
1.266063,-0.736132,0.062475
1.269533,-0.738761,0.053702
1.269773,-0.738943,0.044755
1.265987,-0.736074,0.035683
1.260561,-0.731962,0.026635
1.259076,-0.730836,0.017732
1.259141,-0.730886,0.008866
1.259163,-0.730902,0.000000
1.257325,-0.732910,0.250630
1.256173,-0.732033,0.241268
1.257329,-0.732913,0.232409
1.257656,-0.733162,0.223389
1.258725,-0.733975,0.214520
1.258175,-0.733557,0.205361
1.259156,-0.734303,0.196488
1.256148,-0.732015,0.186965
1.249141,-0.726683,0.176883
1.249983,-0.727324,0.168080
1.242872,-0.721914,0.158169
1.247581,-0.725497,0.149935
1.248291,-0.726037,0.141145
1.248959,-0.726546,0.132349
1.249584,-0.727021,0.123548
1.258099,-0.733499,0.115540
1.258642,-0.733912,0.106669
1.265493,-0.739125,0.098333
1.265952,-0.739473,0.089406
1.260009,-0.734952,0.080033
1.267533,-0.740676,0.071590
1.267860,-0.740925,0.062647
1.268144,-0.741141,0.053702
1.269976,-0.742535,0.044816
1.270173,-0.742685,0.035855
1.270326,-0.742801,0.026892
1.270435,-0.742884,0.017929
1.270501,-0.742934,0.008965
1.252736,-0.733013,0.249946
1.253933,-0.733927,0.241103
1.255087,-0.734809,0.232251
1.260910,-0.739257,0.224306
1.261982,-0.740076,0.215400
1.263011,-0.740862,0.206486
1.263996,-0.741614,0.197564
1.254692,-0.734507,0.186965
1.253216,-0.733379,0.177740
1.253272,-0.733422,0.168778
1.250914,-0.731621,0.159492
1.251670,-0.732199,0.150664
1.252383,-0.732743,0.141831
1.253053,-0.733255,0.132992
1.253680,-0.733734,0.124149
1.257433,-0.736601,0.115619
1.257975,-0.737015,0.106742
1.261309,-0.739561,0.089160
1.261722,-0.739877,0.080254
1.262091,-0.740159,0.071344
1.270357,-0.746474,0.062862
1.262700,-0.740624,0.053518
1.268499,-0.745055,0.044816
1.263135,-0.740957,0.035683
1.263287,-0.741073,0.026763
1.263396,-0.741156,0.017843
1.269024,-0.745455,0.008965
1.253768,-0.737051,0.250459
1.252618,-0.736169,0.241103
1.253771,-0.737053,0.232251
1.254880,-0.737903,0.223389
1.254376,-0.737517,0.214226
1.255398,-0.738300,0.205361
1.261880,-0.743271,0.197430
1.256524,-0.739164,0.187479
1.263716,-0.744679,0.179576
1.262127,-0.743460,0.143203
1.262803,-0.743978,0.134279
1.255322,-0.738242,0.115540
1.258237,-0.740478,0.106889
1.259191,-0.741209,0.089099
1.259604,-0.741525,0.080199
1.267957,-0.747931,0.044847
1.263394,-0.744432,0.035732
1.263546,-0.744549,0.026800
1.263655,-0.744632,0.017867
1.263720,-0.744682,0.008934
1.251683,-0.738665,0.250288
1.252879,-0.739585,0.241433
1.254031,-0.740472,0.232568
1.255140,-0.741325,0.223695
1.256990,-0.742749,0.214960
1.258014,-0.743537,0.206064
1.261350,-0.746104,0.197564
1.259146,-0.744408,0.188121
1.259252,-0.744490,0.179087
1.257740,-0.743326,0.169825
1.258544,-0.743945,0.160924
1.259305,-0.744530,0.152018
1.260023,-0.745083,0.143105
1.257540,-0.743172,0.133819
1.258169,-0.743656,0.124921
1.255595,-0.741675,0.115699
1.256136,-0.742092,0.106816
1.255053,-0.741258,0.097794
1.255507,-0.741607,0.088915
1.248796,-0.736443,0.079536
1.249161,-0.736724,0.070707
1.255818,-0.741847,0.062218
1.256099,-0.742063,0.053334
1.256336,-0.742246,0.044448
1.257323,-0.743005,0.035585
1.263021,-0.747390,0.026819
1.264714,-0.748693,0.017904
1.258579,-0.747251,0.242917
1.256611,-0.745732,0.233363
1.254594,-0.744174,0.223848
1.255660,-0.744997,0.214960
1.255115,-0.744576,0.205783
1.257661,-0.746542,0.197161
1.259382,-0.747872,0.188378
1.260275,-0.748561,0.179454
1.258766,-0.747396,0.170174
1.258784,-0.747410,0.161145
1.258758,-0.747390,0.152122
1.259475,-0.747944,0.143203
1.260149,-0.748464,0.134279
1.261568,-0.749560,0.125436
1.261366,-0.749405,0.116416
1.261910,-0.749825,0.107478
1.255304,-0.744722,0.097929
1.255758,-0.745072,0.089038
1.253798,-0.743559,0.079978
1.250213,-0.740789,0.070854
1.250535,-0.741038,0.062003
1.250815,-0.741254,0.053150
1.251051,-0.741437,0.044294
1.255201,-0.744642,0.035560
1.256143,-0.745370,0.026690
1.269704,-0.755845,0.018002
1.259578,-0.751315,0.243412
1.257616,-0.749793,0.233839
1.258728,-0.750656,0.224917
1.259797,-0.751484,0.215987
1.253781,-0.746820,0.205783
1.254757,-0.747577,0.196892
1.255690,-0.748300,0.187993
1.256580,-0.748990,0.179087
1.262922,-0.753907,0.170988
1.263729,-0.754533,0.162027
1.256633,-0.749031,0.152018
1.265214,-0.755684,0.144085
1.259595,-0.751328,0.134371
1.260225,-0.751816,0.125436
1.260811,-0.752271,0.116496
1.261355,-0.752692,0.107551
1.261855,-0.753079,0.098603
1.263889,-0.754656,0.089774
1.248520,-0.742741,0.079702
1.248885,-0.743024,0.070854
1.249997,-0.743886,0.062046
1.250276,-0.744103,0.053186
1.250513,-0.744286,0.044325
1.258607,-0.750562,0.035707
1.251025,-0.749359,0.232886
1.252131,-0.750221,0.224001
1.260460,-0.756713,0.207330
1.261442,-0.757478,0.198372
1.264727,-0.760038,0.189792
1.263275,-0.758907,0.180433
1.264127,-0.759570,0.171454
1.259447,-0.755923,0.161696
1.257070,-0.754071,0.152330
1.257001,-0.754017,0.143301
1.258458,-0.755152,0.134463
1.259088,-0.755643,0.125521
1.258887,-0.755487,0.116496
1.262576,-0.758361,0.107846
1.263076,-0.758751,0.098873
1.263533,-0.759107,0.089896
1.256858,-0.753905,0.080419
1.257226,-0.754192,0.071492
1.254398,-0.751988,0.062389
1.254679,-0.752206,0.053481
1.254916,-0.752391,0.044570
1.261418,-0.757459,0.035855
1.251337,-0.752649,0.233204
1.252442,-0.753514,0.224306
1.253505,-0.754345,0.215400
1.253745,-0.754532,0.206346
1.254720,-0.755295,0.197430
1.261122,-0.760301,0.189406
1.262015,-0.761000,0.180433
1.259736,-0.759218,0.170988
1.261324,-0.760460,0.162137
1.261302,-0.760443,0.153059
1.262021,-0.761004,0.144085
1.263480,-0.762145,0.135198
1.264111,-0.762640,0.126208
1.265485,-0.763714,0.117293
1.268387,-0.765983,0.108508
1.268889,-0.766376,0.099480
1.266204,-0.764276,0.090203
1.262685,-0.761524,0.080916
1.259121,-0.758736,0.071688
1.255511,-0.755913,0.062518
1.255791,-0.756133,0.053591
1.256029,-0.756318,0.044663
1.258585,-0.758318,0.035806
1.249389,-0.754778,0.224001
1.250449,-0.755610,0.215107
1.251466,-0.756408,0.206205
1.252439,-0.757173,0.197295
1.253370,-0.757904,0.188378
1.255038,-0.759214,0.179576
1.255883,-0.759877,0.170639
1.256685,-0.760507,0.161696
1.258226,-0.761717,0.152851
1.258942,-0.762279,0.143889
1.263530,-0.765882,0.135382
1.264946,-0.766994,0.126465
1.264750,-0.766840,0.117372
1.265295,-0.767268,0.108361
1.265796,-0.767661,0.099345
1.264684,-0.766788,0.090203
1.265097,-0.767113,0.081192
1.258397,-0.761852,0.071737
1.265794,-0.767660,0.063162
1.244933,-0.754565,0.223389
1.245988,-0.755397,0.214520
1.247000,-0.756194,0.205642
1.248748,-0.757572,0.196892
1.253570,-0.761372,0.188635
1.257575,-0.764529,0.180189
1.258422,-0.765197,0.171221
1.259225,-0.765830,0.162247
1.259986,-0.766429,0.153267
1.260702,-0.766994,0.144281
1.262158,-0.768142,0.135382
1.265919,-0.771106,0.126723
1.263376,-0.769102,0.117372
1.263920,-0.769530,0.108361
1.262070,-0.768072,0.099143
1.260958,-0.767196,0.090019
1.261370,-0.767520,0.081027
