1.367396,-0.713259,0.208062
1.368429,-0.713959,0.198658
1.370234,-0.715185,0.189369
1.371172,-0.715822,0.179945
1.372061,-0.716426,0.170514
1.372903,-0.716997,0.161076
1.373697,-0.717536,0.151633
1.374442,-0.718043,0.142183
1.375140,-0.718516,0.132728
1.374965,-0.718398,0.123189
1.368141,-0.713764,0.113069
1.368691,-0.714138,0.103661
1.369193,-0.714479,0.094250
1.369648,-0.714787,0.084835
1.374186,-0.717869,0.075662
1.374546,-0.718113,0.066211
1.374858,-0.718325,0.056757
1.370764,-0.719236,0.237752
1.370311,-0.718927,0.228019
1.370625,-0.719141,0.218442
1.371708,-0.719880,0.209004
1.369467,-0.718351,0.199044
1.367172,-0.716786,0.189124
1.368107,-0.717424,0.179712
1.366530,-0.716349,0.169963
1.367368,-0.716920,0.160556
1.368158,-0.717459,0.151142
1.372191,-0.720209,0.142091
1.369595,-0.718439,0.132299
1.368595,-0.717756,0.122711
1.370017,-0.718726,0.113363
1.370568,-0.719102,0.103931
1.371071,-0.719445,0.094495
1.371526,-0.719755,0.085056
1.373584,-0.721158,0.075711
1.373943,-0.721403,0.066254
1.372604,-0.720490,0.056720
1.372868,-0.720670,0.047270
1.368471,-0.722422,0.228019
1.369601,-0.723197,0.218583
1.370684,-0.723939,0.209138
1.370900,-0.724087,0.199558
1.367793,-0.721957,0.189492
1.368728,-0.722598,0.180061
1.364697,-0.719835,0.169963
1.362253,-0.718158,0.160139
1.363039,-0.718698,0.150750
1.363778,-0.719204,0.141356
1.364470,-0.719679,0.131956
1.365114,-0.720120,0.122552
1.365710,-0.720529,0.113142
1.367082,-0.721470,0.103796
1.366760,-0.721249,0.094311
1.368037,-0.722124,0.084945
1.368443,-0.722403,0.075515
1.368801,-0.722648,0.066082
1.369112,-0.722861,0.056646
1.370199,-0.723607,0.047239
1.370414,-0.723754,0.037793
1.363396,-0.722308,0.217739
1.364473,-0.723049,0.208331
1.364685,-0.723195,0.198787
1.366484,-0.724433,0.189492
1.367418,-0.725076,0.180061
1.367485,-0.725122,0.170514
1.365046,-0.723443,0.160660
1.365834,-0.723986,0.151240
1.360833,-0.720544,0.141172
1.361523,-0.721018,0.131785
1.362165,-0.721461,0.122392
1.364403,-0.723001,0.113142
1.364951,-0.723378,0.103729
1.366274,-0.724289,0.094373
1.365905,-0.724034,0.084890
1.366310,-0.724313,0.075466
1.368314,-0.725692,0.066125
1.367801,-0.725339,0.056646
1.361476,-0.720986,0.046963
1.368278,-0.725668,0.037769
1.370092,-0.726916,0.028365
1.362105,-0.725114,0.236988
1.363278,-0.725924,0.227579
1.362774,-0.725576,0.217880
1.363035,-0.725756,0.208331
1.362431,-0.725339,0.198658
1.363410,-0.726016,0.189247
1.360256,-0.723836,0.179247
1.361137,-0.724445,0.169852
1.361153,-0.724455,0.160347
1.361120,-0.724433,0.150848
1.361858,-0.724943,0.141448
1.363367,-0.725986,0.132128
1.364010,-0.726431,0.122711
1.365426,-0.727409,0.113363
1.367616,-0.728923,0.104066
1.369760,-0.730405,0.094741
1.368572,-0.729583,0.085166
1.368978,-0.729864,0.075711
1.365227,-0.727271,0.066039
1.363892,-0.726349,0.056536
1.364154,-0.726530,0.047116
1.366012,-0.727814,0.037744
1.367824,-0.729067,0.028346
1.362021,-0.728393,0.246866
1.363242,-0.729240,0.237447
1.362790,-0.728926,0.227726
1.354966,-0.723498,0.216754
1.356035,-0.724239,0.207389
1.357057,-0.724948,0.198016
1.358032,-0.725625,0.188635
1.358143,-0.725702,0.179131
1.356573,-0.724612,0.169412
1.357403,-0.725188,0.160035
1.358186,-0.725732,0.150652
1.358922,-0.726242,0.141264
1.363703,-0.729560,0.132299
1.364347,-0.730006,0.122870
1.365762,-0.730988,0.113510
1.365490,-0.730800,0.103999
1.365991,-0.731147,0.094557
1.367264,-0.732030,0.085166
1.367670,-0.732312,0.075711
1.368027,-0.732560,0.066254
1.369159,-0.733345,0.056830
1.368600,-0.732957,0.047331
1.367172,-0.731967,0.037818
1.368982,-0.733222,0.028402
1.369923,-0.733875,0.018947
1.359906,-0.730264,0.246707
1.354637,-0.726594,0.236072
1.355802,-0.727405,0.226699
1.355295,-0.727052,0.217036
1.356364,-0.727797,0.207658
1.354944,-0.726808,0.197887
1.355917,-0.727486,0.188512
1.356843,-0.728130,0.179131
1.357721,-0.728742,0.169742
1.358552,-0.729321,0.160347
1.356886,-0.728160,0.150652
1.360072,-0.730380,0.141540
1.359126,-0.729721,0.131956
1.361403,-0.731306,0.122711
1.370999,-0.737990,0.114099
1.371549,-0.738374,0.104606
1.366319,-0.734730,0.094679
1.366772,-0.735046,0.085221
1.361440,-0.731332,0.075417
1.361796,-0.731580,0.065996
1.362924,-0.732366,0.056610
1.363186,-0.732548,0.047178
1.363400,-0.732697,0.037744
1.363566,-0.732813,0.028310
1.372710,-0.739182,0.019009
1.368323,-0.739454,0.248613
1.355780,-0.730685,0.236530
1.356946,-0.731500,0.227139
1.354008,-0.729446,0.217036
1.355888,-0.730760,0.207793
1.356909,-0.731474,0.198401
1.357070,-0.731587,0.188880
1.357996,-0.732234,0.179480
1.359689,-0.733418,0.170183
1.363782,-0.736279,0.161180
1.365308,-0.737346,0.142275
1.366000,-0.737830,0.132814
1.365827,-0.737709,0.123269
1.363154,-0.735840,0.113510
1.362883,-0.735651,0.103999
1.363382,-0.736000,0.094557
1.362197,-0.735172,0.085001
1.364238,-0.736598,0.075662
1.364595,-0.736848,0.066211
1.359171,-0.733056,0.056499
1.358612,-0.732665,0.047055
1.356367,-0.731096,0.037573
1.356533,-0.731211,0.028181
1.356651,-0.731294,0.018788
1.352684,-0.733322,0.245912
1.353895,-0.734173,0.236530
1.355868,-0.735560,0.227286
1.354555,-0.734637,0.217458
1.353191,-0.733679,0.207658
1.359078,-0.737817,0.199044
1.355994,-0.735649,0.189002
1.356106,-0.735728,0.179480
1.357797,-0.736916,0.170183
1.359441,-0.738072,0.160868
1.360225,-0.738623,0.151436
1.360961,-0.739141,0.141999
1.361651,-0.739625,0.132557
1.362292,-0.740076,0.123109
1.358807,-0.737626,0.113289
1.359352,-0.738009,0.103864
1.359850,-0.738359,0.094434
1.360300,-0.738676,0.085001
1.360703,-0.738959,0.075564
1.363511,-0.740933,0.066254
1.363002,-0.740575,0.056757
1.363263,-0.740759,0.047301
1.363477,-0.740909,0.037843
1.363643,-0.741026,0.028383
1.363762,-0.741109,0.018923
1.356339,-0.738919,0.246866
1.357553,-0.739776,0.237447
1.359528,-0.741169,0.228166
1.360649,-0.741959,0.218724
1.355729,-0.738489,0.179596
1.353357,-0.736816,0.169742
1.354997,-0.737973,0.160451
1.355778,-0.738523,0.151044
1.358139,-0.740189,0.141816
1.358826,-0.740674,0.132385
1.361910,-0.742849,0.123189
1.362504,-0.743268,0.113731
1.360605,-0.741928,0.104066
1.363550,-0.744006,0.094802
1.359922,-0.741447,0.085056
1.360325,-0.741731,0.075613
1.359047,-0.740830,0.066082
1.359355,-0.741047,0.056646
1.356348,-0.738926,0.047086
1.356561,-0.739076,0.037671
1.354275,-0.737463,0.028199
1.354393,-0.737546,0.018800
1.354463,-0.737596,0.009400
1.360049,-0.745279,0.257594
1.358898,-0.744464,0.247660
1.360114,-0.745326,0.238211
1.352404,-0.739864,0.227139
1.353518,-0.740653,0.217739
1.354584,-0.741409,0.208331
1.358032,-0.743851,0.199301
1.355767,-0.742246,0.189369
1.357502,-0.743475,0.180061
1.358379,-0.744097,0.170624
1.359210,-0.744686,0.161180
1.356745,-0.742939,0.151338
1.357479,-0.743459,0.141907
1.357353,-0.743370,0.132385
1.357993,-0.743823,0.122950
1.356957,-0.743089,0.113363
1.357501,-0.743475,0.103931
1.357998,-0.743827,0.094495
1.356818,-0.742991,0.084945
1.357219,-0.743275,0.075515
1.359204,-0.744681,0.066168
1.357881,-0.743744,0.056646
1.354879,-0.741617,0.047086
1.355906,-0.742345,0.037695
1.356072,-0.742462,0.028273
1.354558,-0.741390,0.018825
1.356260,-0.742596,0.009425
1.361603,-0.749725,0.248454
1.356379,-0.746010,0.237752
1.353513,-0.743973,0.227579
1.348979,-0.740749,0.217176
1.345196,-0.738059,0.206985
1.350249,-0.741652,0.198273
1.347982,-0.740040,0.188390
1.350519,-0.741844,0.179247
1.351392,-0.742465,0.169852
1.352218,-0.743052,0.160451
1.352997,-0.743606,0.151044
1.355352,-0.745280,0.141816
1.356850,-0.746345,0.132471
1.356676,-0.746222,0.122950
1.357267,-0.746642,0.113510
1.357811,-0.747029,0.104066
1.355868,-0.745647,0.094434
1.354689,-0.744809,0.084890
1.356718,-0.746251,0.075564
1.357072,-0.746503,0.066125
1.357379,-0.746722,0.056683
1.354380,-0.744589,0.047116
1.354593,-0.744740,0.037695
1.354758,-0.744858,0.028273
1.354875,-0.744941,0.018849
1.354946,-0.744992,0.009425
1.350466,-0.745169,0.265846
1.351770,-0.746100,0.256440
1.352224,-0.746424,0.246866
1.348607,-0.743843,0.236530
1.349764,-0.744669,0.227139
1.348458,-0.743736,0.217317
1.349520,-0.744494,0.207927
1.350535,-0.745219,0.198530
1.352311,-0.746486,0.189247
1.352424,-0.746567,0.179712
1.354107,-0.747768,0.170404
1.354934,-0.748359,0.160972
1.358145,-0.750650,0.151829
1.358880,-0.751175,0.142367
1.360378,-0.752244,0.132986
1.360207,-0.752122,0.123428
1.355118,-0.748489,0.113437
1.354036,-0.747718,0.103864
1.352907,-0.746912,0.094311
1.352541,-0.746651,0.084835
1.352942,-0.746937,0.075417
1.354108,-0.747769,0.066039
1.354414,-0.747988,0.056610
1.352233,-0.746431,0.047086
1.352444,-0.746582,0.037671
1.352609,-0.746699,0.028254
1.352727,-0.746783,0.018837
1.353611,-0.747414,0.009425
1.357704,-0.750336,0.000000
1.344325,-0.744141,0.264820
1.345622,-0.745071,0.255450
1.346873,-0.745967,0.246071
1.346470,-0.745678,0.236377
1.346822,-0.745930,0.226845
1.354369,-0.751337,0.218583
1.355435,-0.752101,0.209138
1.350006,-0.748211,0.198658
1.357427,-0.753528,0.190226
1.358353,-0.754191,0.180759
1.360039,-0.755399,0.171396
1.354402,-0.751361,0.161076
1.355182,-0.751919,0.151633
1.354296,-0.751285,0.141999
1.350121,-0.748294,0.132042
1.348325,-0.747007,0.122392
1.347291,-0.746266,0.112848
1.351885,-0.749558,0.103796
1.348323,-0.747006,0.094066
1.348769,-0.747325,0.084670
1.345920,-0.745284,0.075074
1.346271,-0.745535,0.065696
1.346575,-0.745753,0.056315
1.347645,-0.746520,0.046963
1.347856,-0.746671,0.037573
1.348833,-0.747371,0.028199
1.349763,-0.748037,0.018812
1.352272,-0.749835,0.009425
1.353921,-0.751016,0.000000
1.357962,-0.753911,-0.009468
1.350416,-0.753329,0.266530
1.351719,-0.754268,0.257100
1.351374,-0.754019,0.247342
1.352582,-0.754889,0.237905
1.346519,-0.750522,0.227139
1.347626,-0.751320,0.217739
1.348687,-0.752084,0.208331
1.349701,-0.752814,0.198915
1.350668,-0.753510,0.189492
1.349976,-0.753012,0.179829
1.349235,-0.752478,0.170183
1.348445,-0.751909,0.160556
1.348413,-0.751886,0.151044
1.349142,-0.752411,0.141632
1.342547,-0.747661,0.131441
1.347223,-0.751029,0.122472
1.347809,-0.751451,0.113069
1.348349,-0.751840,0.103661
1.348841,-0.752195,0.094250
1.349287,-0.752516,0.084835
1.349686,-0.752803,0.075417
1.350849,-0.753641,0.066039
1.351965,-0.754445,0.056646
1.352224,-0.754631,0.047209
1.345946,-0.750109,0.037573
1.352600,-0.754902,0.028328
1.350283,-0.753233,0.018849
1.350353,-0.753284,0.009425
1.353623,-0.755639,0.000000
1.356033,-0.757375,-0.009468
1.348399,-0.754931,0.266359
1.348102,-0.754716,0.256605
1.347754,-0.754465,0.246866
1.348157,-0.754756,0.237294
1.347710,-0.754433,0.227579
1.348819,-0.755234,0.218161
1.344259,-0.751938,0.207793
1.345269,-0.752668,0.198401
1.346232,-0.753364,0.189002
1.347148,-0.754027,0.179596
1.347213,-0.754073,0.170073
1.348035,-0.754668,0.160660
1.348811,-0.755228,0.151240
1.349539,-0.755755,0.141816
1.348606,-0.755080,0.132214
1.349240,-0.755539,0.122791
1.350636,-0.756547,0.113437
1.351176,-0.756938,0.103999
1.346816,-0.753787,0.094189
1.347261,-0.754108,0.084780
1.350088,-0.756151,0.075515
1.350440,-0.756406,0.066082
1.350745,-0.756626,0.056646
1.351003,-0.756813,0.047209
1.353645,-0.758723,0.037843
1.353810,-0.758842,0.028383
1.353928,-0.758927,0.018923
1.353998,-0.758978,0.009462
1.354022,-0.758995,0.000000
1.353998,-0.758978,-0.009462
1.356359,-0.760684,-0.018960
1.342113,-0.754134,0.265333
1.341811,-0.753915,0.255615
1.341459,-0.753659,0.245912
1.342657,-0.754529,0.236530
1.343808,-0.755364,0.227139
1.346516,-0.757329,0.218020
1.342763,-0.754605,0.207793
1.339759,-0.752425,0.197759
1.339914,-0.752538,0.188268
1.340826,-0.753200,0.178898
1.341691,-0.753827,0.169522
1.341705,-0.753837,0.160035
1.342476,-0.754397,0.150652
1.346424,-0.757263,0.141632
1.343879,-0.755415,0.131870
1.342897,-0.754703,0.122313
1.343481,-0.755127,0.112922
1.345634,-0.756689,0.103661
1.344509,-0.755873,0.094127
1.344953,-0.756195,0.084725
1.346967,-0.757657,0.075417
1.345701,-0.756738,0.065910
1.344388,-0.755785,0.056425
1.343836,-0.755384,0.046994
1.344855,-0.756124,0.037622
1.344209,-0.755655,0.028199
1.344326,-0.755740,0.018800
1.346014,-0.756965,0.009412
1.346038,-0.756982,0.000000
1.346014,-0.756965,-0.009412
1.354037,-0.762788,-0.018947
1.346583,-0.760774,0.276304
1.347133,-0.761175,0.266701
1.342055,-0.757475,0.255945
1.338513,-0.754895,0.245595
1.350890,-0.763912,0.238364
1.351250,-0.764174,0.228753
1.348359,-0.762068,0.218583
1.349420,-0.762841,0.209138
1.350434,-0.763580,0.199686
1.351401,-0.764284,0.190226
1.352321,-0.764954,0.180759
1.340340,-0.756226,0.169522
1.342765,-0.757993,0.160347
1.343537,-0.758556,0.150946
1.344263,-0.759084,0.141540
1.344136,-0.758992,0.132042
1.344768,-0.759452,0.122631
1.345352,-0.759878,0.113216
1.343471,-0.758507,0.103594
1.343962,-0.758865,0.094189
1.348441,-0.762128,0.085056
1.354490,-0.766535,0.075957
1.349191,-0.762674,0.066168
1.349495,-0.762896,0.056720
1.349753,-0.763084,0.047270
1.348348,-0.762060,0.037769
1.346088,-0.760413,0.028273
1.347013,-0.761087,0.018861
1.347083,-0.761138,0.009431
1.347106,-0.761155,0.000000
1.347083,-0.761138,-0.009431
1.352670,-0.765209,-0.018947
1.342237,-0.762493,0.275773
1.342784,-0.762894,0.266188
1.344079,-0.763842,0.256770
1.343734,-0.763589,0.247024
1.341744,-0.762132,0.236988
1.340500,-0.761220,0.227139
1.341601,-0.762027,0.217739
1.342655,-0.762799,0.208331
1.343663,-0.763538,0.198915
1.343023,-0.763069,0.189247
1.339930,-0.760803,0.179247
1.339993,-0.760849,0.169742
1.340810,-0.761447,0.160347
1.341580,-0.762012,0.150946
1.342304,-0.762542,0.141540
1.342981,-0.763038,0.132128
1.343612,-0.763500,0.122711
1.345805,-0.765107,0.113437
1.341514,-0.761963,0.103594
1.342004,-0.762322,0.094189
1.344058,-0.763826,0.084890
1.344455,-0.764117,0.075466
1.340775,-0.761422,0.065824
1.341077,-0.761643,0.056425
1.340527,-0.761240,0.046994
1.340736,-0.761394,0.037597
1.341706,-0.762104,0.028218
1.345049,-0.764553,0.018861
1.345119,-0.764604,0.009431
1.345142,-0.764621,0.000000
1.342699,-0.762831,-0.009412
1.342629,-0.762780,-0.018825
1.342512,-0.762695,-0.028236
1.346941,-0.769439,0.267384
1.348239,-0.770394,0.257924
1.336364,-0.761662,0.236224
1.337509,-0.762504,0.226845
1.340202,-0.764484,0.217739
1.338062,-0.762911,0.207793
1.339066,-0.763649,0.198401
1.340023,-0.764353,0.189002
1.340935,-0.765023,0.179596
1.340198,-0.764481,0.169963
1.341015,-0.765082,0.160556
1.341785,-0.765648,0.151142
1.344916,-0.767950,0.141999
1.345594,-0.768449,0.132557
1.346811,-0.769344,0.113657
1.344938,-0.767967,0.103999
1.344625,-0.767736,0.094495
1.345069,-0.768063,0.085056
1.344661,-0.767763,0.075564
1.345011,-0.768021,0.066125
1.346120,-0.768836,0.056720
1.346377,-0.769025,0.047270
1.346588,-0.769179,0.037818
1.346751,-0.769300,0.028365
1.342034,-0.765832,0.018837
1.342104,-0.765883,0.009419
1.338905,-0.763530,0.000000
1.342104,-0.765883,-0.009419
1.346868,-0.769386,-0.018910
1.350779,-0.772261,-0.028457
1.345410,-0.772112,0.267384
1.346707,-0.773069,0.257924
1.338824,-0.767249,0.236988
1.339971,-0.768095,0.227579
1.337885,-0.766555,0.217598
1.338936,-0.767331,0.208196
1.339941,-0.768073,0.198787
1.341697,-0.769370,0.189492
1.335418,-0.764734,0.179014
1.336278,-0.765369,0.169632
1.335492,-0.764789,0.160035
1.336259,-0.765355,0.150652
1.336980,-0.765887,0.141264
1.337654,-0.766385,0.131870
1.336678,-0.765664,0.122313
1.337258,-0.766093,0.112922
1.339398,-0.767672,0.103661
1.339886,-0.768033,0.094250
1.340328,-0.768359,0.084835
1.341527,-0.769245,0.075466
1.341877,-0.769502,0.066039
1.342179,-0.769726,0.056610
1.342435,-0.769915,0.047178
1.346666,-0.773039,0.037867
1.344417,-0.771378,0.028346
1.344533,-0.771464,0.018898
1.344603,-0.771516,0.009449
1.342213,-0.769751,0.000000
1.342190,-0.769734,-0.009431
1.338902,-0.767306,-0.018812
1.342004,-0.769596,-0.028291
1.345058,-0.771851,-0.037818
1.336111,-0.768651,0.265675
1.331851,-0.765493,0.255121
1.328326,-0.762881,0.244800
1.329510,-0.763758,0.235460
1.330648,-0.764602,0.226112
1.331739,-0.765411,0.216754
1.332785,-0.766185,0.207389
1.333784,-0.766926,0.198016
1.334737,-0.767632,0.188635
1.335644,-0.768304,0.179247
1.336504,-0.768942,0.169852
1.335720,-0.768361,0.160243
1.341284,-0.772485,0.151436
1.342008,-0.773021,0.141999
1.342684,-0.773522,0.132557
1.341713,-0.772802,0.122950
1.342296,-0.773234,0.113510
1.342832,-0.773632,0.104066
1.341718,-0.772806,0.094495
1.342160,-0.773134,0.085056
1.342556,-0.773427,0.075613
1.342906,-0.773686,0.066168
1.339997,-0.771531,0.056573
1.340253,-0.771720,0.047147
1.337250,-0.769494,0.037622
1.335805,-0.768424,0.028181
1.335921,-0.768510,0.018788
1.335187,-0.767966,0.009388
1.335210,-0.767983,0.000000
1.338401,-0.770347,-0.009412
1.338331,-0.770296,-0.018825
1.338215,-0.770210,-0.028236
1.341265,-0.772471,-0.037744
1.333620,-0.770169,0.284810
1.334999,-0.771195,0.275419
1.336332,-0.772187,0.266017
1.334453,-0.770789,0.255945
1.327768,-0.765817,0.244959
1.328951,-0.766697,0.235613
1.330088,-0.767542,0.226258
1.331179,-0.768354,0.216895
1.335404,-0.771496,0.208062
1.336405,-0.772241,0.198658
1.337360,-0.772951,0.189247
1.338269,-0.773627,0.179829
1.339131,-0.774269,0.170404
1.340744,-0.775469,0.161076
1.341514,-0.776042,0.151633
1.342237,-0.776580,0.142183
1.339716,-0.774704,0.132385
1.339545,-0.774577,0.122870
1.340127,-0.775010,0.113437
1.341463,-0.776003,0.104066
1.339549,-0.774580,0.094434
1.338389,-0.773717,0.084890
1.342790,-0.776991,0.075711
1.339933,-0.774866,0.066082
1.339434,-0.774494,0.056610
1.339689,-0.774684,0.047178
1.336690,-0.772453,0.037646
1.336852,-0.772574,0.028236
1.336968,-0.772660,0.018825
1.337840,-0.773308,0.009419
1.337863,-0.773325,0.000000
1.337840,-0.773308,-0.009419
1.337770,-0.773256,-0.018837
1.335247,-0.771380,-0.028199
1.335085,-0.771260,-0.037597
1.332240,-0.772554,0.284810
1.328885,-0.770049,0.274357
1.330211,-0.771039,0.264991
1.327540,-0.769045,0.254791
1.324023,-0.766419,0.244483
1.325202,-0.767299,0.235155
1.326335,-0.768145,0.225818
1.327422,-0.768957,0.216473
1.328464,-0.769734,0.207120
1.332637,-0.772851,0.198273
1.335180,-0.774749,0.189124
1.334495,-0.774238,0.179480
1.335354,-0.774879,0.170073
1.338558,-0.777271,0.160972
1.339326,-0.777845,0.151534
1.336856,-0.776001,0.141724
1.337530,-0.776504,0.132299
1.338157,-0.776972,0.122870
1.336341,-0.775616,0.113216
1.336075,-0.775417,0.103729
1.335762,-0.775184,0.094250
1.336202,-0.775512,0.084835
1.335796,-0.775209,0.075368
1.336143,-0.775468,0.065953
1.336444,-0.775693,0.056536
1.335097,-0.774687,0.047055
1.335306,-0.774843,0.037646
1.334666,-0.774366,0.028218
1.333180,-0.773256,0.018788
1.333249,-0.773307,0.009394
1.334875,-0.774521,0.000000
1.333249,-0.773307,-0.009394
1.333981,-0.773854,-0.018800
1.334666,-0.774366,-0.028218
1.335306,-0.774843,-0.037646
1.335097,-0.774687,-0.047055
1.331819,-0.777162,0.285176
1.324537,-0.771695,0.273826
1.325858,-0.772687,0.264478
1.327133,-0.773644,0.255121
1.328362,-0.774566,0.245754
1.330335,-0.776048,0.236530
1.331473,-0.776901,0.227139
1.330189,-0.775938,0.217317
1.331232,-0.776721,0.207927
1.335402,-0.779851,0.199044
1.335562,-0.779971,0.189492
1.336469,-0.780652,0.180061
1.339714,-0.783088,0.170955
1.338143,-0.781909,0.161180
1.331748,-0.777108,0.150848
1.332465,-0.777646,0.141448
1.332339,-0.777552,0.131956
1.332964,-0.778021,0.122552
1.333542,-0.778455,0.113142
1.330883,-0.776458,0.103459
1.331367,-0.776822,0.094066
1.331806,-0.777151,0.084670
1.330601,-0.776247,0.075172
1.327750,-0.774107,0.065610
1.328049,-0.774332,0.056241
1.325904,-0.772721,0.046779
1.326111,-0.772877,0.037425
1.328671,-0.774798,0.028125
1.328786,-0.774884,0.018751
1.328854,-0.774936,0.009376
1.328877,-0.774953,0.000000
1.332853,-0.777938,-0.009406
1.332784,-0.777886,-0.018812
1.333468,-0.778399,-0.028236
1.332507,-0.777678,-0.037622
1.338694,-0.782322,-0.047270
1.339238,-0.782731,-0.056757
1.324281,-0.774579,0.283712
1.323290,-0.773833,0.273826
1.323035,-0.773641,0.264136
1.325882,-0.775785,0.255121
1.323955,-0.774334,0.245118
1.325134,-0.775221,0.235766
1.331007,-0.779645,0.227286
1.332098,-0.780467,0.217880
1.332351,-0.780658,0.208331
1.334141,-0.782006,0.199044
1.334301,-0.782126,0.189492
1.332033,-0.780418,0.179596
1.332891,-0.781064,0.170183
1.333701,-0.781675,0.160764
1.333671,-0.781652,0.151240
1.334390,-0.782193,0.141816
1.333470,-0.781500,0.132214
1.331706,-0.780172,0.122552
1.332284,-0.780607,0.113142
1.332815,-0.781007,0.103729
1.333300,-0.781373,0.094311
1.332144,-0.780502,0.084780
1.332537,-0.780798,0.075368
1.332883,-0.781058,0.065953
1.330789,-0.779481,0.056425
1.328647,-0.777868,0.046932
1.328854,-0.778024,0.037548
1.329015,-0.778145,0.028162
1.328331,-0.777630,0.018763
1.327602,-0.777080,0.009376
1.328424,-0.777699,0.000000
1.328400,-0.777682,-0.009382
1.329130,-0.778232,-0.018775
1.329015,-0.778145,-0.028162
1.332048,-0.780429,-0.037646
1.334236,-0.782077,-0.047147
1.337973,-0.784892,-0.056757
1.329042,-0.782015,0.256110
1.330273,-0.782945,0.246707
1.331806,-0.784105,0.227726
1.332898,-0.784931,0.218302
1.333943,-0.785721,0.208869
1.332569,-0.784682,0.199044
1.331937,-0.784204,0.189369
1.332841,-0.784888,0.179945
1.330527,-0.783138,0.170073
1.324991,-0.778950,0.159827
1.328925,-0.781926,0.150848
1.329640,-0.782467,0.141448
1.330309,-0.782973,0.132042
1.328547,-0.781640,0.122392
1.329123,-0.782076,0.112995
1.329653,-0.782477,0.103594
1.332526,-0.784649,0.094373
1.330575,-0.783174,0.084780
1.333357,-0.785278,0.075515
1.333704,-0.785540,0.066082
1.327628,-0.780945,0.056352
1.327880,-0.781136,0.046963
1.327290,-0.780689,0.037548
1.327451,-0.780811,0.028162
1.328363,-0.781501,0.018788
1.331622,-0.783966,0.009419
1.331645,-0.783983,0.000000
1.333217,-0.785172,-0.009431
1.331553,-0.783914,-0.018837
1.333033,-0.785033,-0.028291
1.331277,-0.783705,-0.037671
1.342230,-0.791989,-0.047515
1.341974,-0.791795,-0.057014
1.325599,-0.782799,0.265333
1.326087,-0.783169,0.255780
1.326528,-0.783504,0.246230
1.326134,-0.783205,0.236530
1.327267,-0.784065,0.227139
1.327566,-0.784292,0.217598
1.328606,-0.785082,0.208196
1.323281,-0.781040,0.197759
1.324225,-0.781756,0.188390
1.325123,-0.782437,0.179014
1.325975,-0.783084,0.169632
1.326781,-0.783696,0.160243
1.329919,-0.786078,0.151142
1.330635,-0.786622,0.141724
1.331304,-0.787130,0.132299
1.331134,-0.787000,0.122791
1.331711,-0.787439,0.113363
1.332242,-0.787842,0.103931
1.327957,-0.784589,0.094127
1.322827,-0.780695,0.084338
1.328785,-0.785217,0.075319
1.333109,-0.788500,0.066125
1.333409,-0.788728,0.056683
1.333663,-0.788920,0.047239
1.333871,-0.789078,0.037793
1.340403,-0.794037,0.028494
1.333351,-0.788684,0.018886
1.330235,-0.786318,0.009419
1.330258,-0.786335,0.000000
1.330235,-0.786318,-0.009419
1.330166,-0.786265,-0.018837
1.330051,-0.786178,-0.028254
1.329890,-0.786056,-0.037671
1.333663,-0.788920,-0.047239
1.340573,-0.794166,-0.057014
1.321313,-0.782972,0.274357
1.320278,-0.782183,0.264478
1.319977,-0.781954,0.254791
1.322768,-0.784081,0.245754
1.323159,-0.784378,0.236224
1.325076,-0.785839,0.226992
1.329310,-0.789066,0.218161
1.330352,-0.789859,0.208735
1.329770,-0.789416,0.199044
1.330719,-0.790139,0.189614
1.324511,-0.785409,0.179131
1.325362,-0.786057,0.169742
1.326168,-0.786671,0.160347
1.326928,-0.787250,0.150946
1.327641,-0.787794,0.141540
1.328309,-0.788303,0.132128
1.328931,-0.788776,0.122711
1.324747,-0.785589,0.112848
1.322894,-0.784177,0.103257
1.324963,-0.785753,0.094005
1.319840,-0.781850,0.084228
1.322611,-0.783961,0.075024
1.322955,-0.784223,0.065653
1.324047,-0.785055,0.056315
1.323504,-0.784641,0.046902
1.324505,-0.785404,0.037548
1.324666,-0.785527,0.028162
1.324780,-0.785614,0.018775
1.325644,-0.786272,0.009394
1.328053,-0.788108,0.000000
1.328030,-0.788090,-0.009412
1.328757,-0.788644,-0.018837
1.333414,-0.792192,-0.028365
1.333252,-0.792069,-0.037818
1.333045,-0.791911,-0.047270
1.332791,-0.791717,-0.056720
1.323589,-0.788106,0.265504
1.324861,-0.789078,0.256110
1.325302,-0.789416,0.246548
1.327266,-0.790918,0.237294
1.328399,-0.791784,0.227872
1.328700,-0.792015,0.218302
1.326593,-0.790403,0.208331
1.324434,-0.788752,0.198401
1.325379,-0.789474,0.189002
1.326277,-0.790161,0.179596
1.327129,-0.790813,0.170183
1.327936,-0.791430,0.160764
1.327906,-0.791407,0.151240
1.328620,-0.791953,0.141816
1.326123,-0.790043,0.132042
1.321992,-0.786885,0.122153
1.322565,-0.787323,0.112774
1.323092,-0.787726,0.103392
1.323573,-0.788094,0.094005
1.324008,-0.788426,0.084614
1.326778,-0.790544,0.075368
1.327122,-0.790808,0.065953
1.327421,-0.791036,0.056536
1.327673,-0.791229,0.047116
1.327880,-0.791387,0.037695
1.330423,-0.793332,0.028328
1.330538,-0.793420,0.018886
1.329019,-0.792258,0.009431
1.329042,-0.792276,0.000000
1.329019,-0.792258,-0.009431
1.328950,-0.792206,-0.018861
1.328041,-0.791510,-0.028273
1.327880,-0.791387,-0.037695
1.327673,-0.791229,-0.047116
1.334565,-0.796500,-0.056867
1.326243,-0.795114,0.266530
1.320479,-0.790683,0.255615
1.321700,-0.791621,0.246230
1.322875,-0.792525,0.236836
1.324004,-0.793393,0.227432
1.324302,-0.793622,0.217880
1.326910,-0.795628,0.208735
1.326331,-0.795182,0.199044
1.319408,-0.789859,0.188390
1.320301,-0.790546,0.179014
1.321149,-0.791198,0.169632
1.321952,-0.791815,0.160243
1.323497,-0.793003,0.150946
1.324998,-0.794157,0.141632
1.324874,-0.794062,0.132128
1.325494,-0.794539,0.122711
1.323696,-0.793156,0.113069
1.323432,-0.792953,0.103594
1.323913,-0.793323,0.094189
1.322765,-0.792441,0.084670
1.322363,-0.792131,0.075221
1.322706,-0.792395,0.065824
1.322211,-0.792014,0.056389
1.322462,-0.792208,0.046994
1.323461,-0.792975,0.037622
1.323621,-0.793098,0.028218
1.323735,-0.793186,0.018812
1.325389,-0.794458,0.009419
1.327790,-0.796304,0.000000
1.328560,-0.796896,-0.009443
1.328491,-0.796843,-0.018886
1.327584,-0.796145,-0.028310
1.327423,-0.796022,-0.037744
1.330386,-0.798300,-0.047301
1.334095,-0.801151,-0.056941
1.333349,-0.803684,0.239128
1.325642,-0.797740,0.208735
1.321136,-0.794264,0.198401
1.322077,-0.794990,0.189002
1.320613,-0.793861,0.179247
1.320675,-0.793908,0.169742
1.319901,-0.793312,0.160139
1.322233,-0.795110,0.150946
1.321366,-0.794442,0.141356
1.322030,-0.794954,0.131956
1.320281,-0.793604,0.122313
1.320852,-0.794045,0.112922
1.318218,-0.792013,0.103257
1.321858,-0.794821,0.094127
1.322292,-0.795156,0.084725
1.325054,-0.797286,0.075466
1.325397,-0.797551,0.066039
1.328069,-0.799612,0.056720
1.328322,-0.799807,0.047270
1.324571,-0.796914,0.037695
1.322356,-0.795205,0.028218
1.322470,-0.795293,0.018812
1.322539,-0.795346,0.009406
1.323353,-0.795975,0.000000
1.323331,-0.795957,-0.009412
1.324054,-0.796515,-0.018837
1.323939,-0.796427,-0.028254
1.323779,-0.796303,-0.037671
1.323573,-0.796144,-0.047086
1.323322,-0.795950,-0.056499
1.323100,-0.799630,0.256770
1.314176,-0.792718,0.245277
1.314561,-0.793017,0.235766
1.315682,-0.793885,0.226405
1.316758,-0.794718,0.217036
1.316221,-0.794302,0.207389
1.317205,-0.795064,0.198016
1.318142,-0.795790,0.188635
1.321391,-0.798306,0.179596
1.318310,-0.795920,0.169632
1.315965,-0.794104,0.159827
1.315144,-0.793468,0.150260
1.317425,-0.795234,0.141080
1.318086,-0.795747,0.131699
1.317126,-0.795003,0.122153
1.317696,-0.795445,0.112774
1.322953,-0.799516,0.103796
1.323434,-0.799889,0.094373
1.323869,-0.800225,0.084945
1.326627,-0.802362,0.075662
1.326971,-0.802628,0.066211
1.325689,-0.801635,0.056683
1.327522,-0.803055,0.047301
1.326147,-0.801990,0.037793
1.323146,-0.799666,0.028273
1.323260,-0.799754,0.018849
1.320167,-0.797358,0.009400
1.320189,-0.797376,0.000000
1.320167,-0.797358,-0.009400
1.320098,-0.797305,-0.018800
1.323936,-0.800278,-0.028291
1.329309,-0.804439,-0.037892
1.319771,-0.800521,0.246707
1.313921,-0.795974,0.235919
1.312698,-0.795023,0.226112
1.313771,-0.795857,0.216754
1.311669,-0.794223,0.206851
1.315780,-0.797419,0.198016
1.317500,-0.798756,0.188757
1.318392,-0.799450,0.179363
1.319238,-0.800107,0.169963
1.320039,-0.800730,0.160556
1.317651,-0.798873,0.150750
1.318358,-0.799423,0.141356
1.319020,-0.799938,0.131956
1.318063,-0.799194,0.122392
1.318633,-0.799637,0.112995
1.319945,-0.800657,0.103661
1.320425,-0.801030,0.094250
1.323223,-0.803205,0.085001
1.323612,-0.803508,0.075564
1.323955,-0.803775,0.066125
1.326620,-0.805846,0.056794
1.324505,-0.804201,0.047239
1.320764,-0.801294,0.037671
1.320135,-0.800804,0.028236
1.320249,-0.800893,0.018825
1.320317,-0.800946,0.009412
1.320340,-0.800964,0.000000
1.320317,-0.800946,-0.009412
1.321827,-0.802120,-0.018849
1.321713,-0.802032,-0.028273
1.321553,-0.801907,-0.037695
1.326872,-0.806042,-0.047331
1.321468,-0.805282,0.247342
1.317187,-0.801942,0.236836
1.318310,-0.802818,0.227432
1.316265,-0.801223,0.217458
1.316513,-0.801416,0.207927
1.317497,-0.802183,0.198530
1.317652,-0.802304,0.189002
1.317760,-0.802389,0.179480
1.317822,-0.802437,0.169963
1.317837,-0.802449,0.160451
1.318591,-0.803037,0.151044
1.319299,-0.803590,0.141632
1.318390,-0.802881,0.132042
1.319006,-0.803361,0.122631
1.319577,-0.803806,0.113216
1.318528,-0.802988,0.103661
1.318220,-0.802748,0.094189
1.317079,-0.801857,0.084670
1.317465,-0.802159,0.075270
1.317807,-0.802425,0.065867
1.318103,-0.802656,0.056462
1.319141,-0.803466,0.047086
1.319346,-0.803626,0.037671
1.323447,-0.806826,0.028346
1.325926,-0.808761,0.018935
1.327572,-0.810044,0.009480
1.326018,-0.808832,0.000000
1.325995,-0.808814,-0.009468
1.325926,-0.808761,-0.018935
1.317929,-0.802521,-0.028218
1.317770,-0.802397,-0.037622
1.317836,-0.807462,0.247024
1.308898,-0.800451,0.235613
1.310013,-0.801325,0.226258
1.315756,-0.805831,0.217739
1.313666,-0.804191,0.207793
1.314647,-0.804960,0.198401
1.318706,-0.808144,0.189492
1.316472,-0.806392,0.179596
1.317316,-0.807054,0.170183
1.314202,-0.804612,0.160243
1.319651,-0.808886,0.151436
1.318009,-0.807598,0.141724
1.318671,-0.808117,0.132299
1.319287,-0.808600,0.122870
1.319857,-0.809047,0.113437
1.320382,-0.809459,0.103999
1.320861,-0.809835,0.094557
1.318152,-0.807710,0.084890
1.318540,-0.808014,0.075466
1.318881,-0.808282,0.066039
1.319177,-0.808514,0.056610
1.321787,-0.810561,0.047270
1.321993,-0.810722,0.037818
1.316646,-0.806528,0.028236
1.316759,-0.806617,0.018825
1.316827,-0.806671,0.009412
1.316850,-0.806688,0.000000
1.316827,-0.806671,-0.009412
1.318333,-0.807851,-0.018849
1.318219,-0.807762,-0.028273
1.318060,-0.807637,-0.037695
1.318641,-0.808094,-0.047147
1.318476,-0.811119,0.237752
1.316490,-0.809557,0.227726
1.314454,-0.807954,0.217739
1.315481,-0.808762,0.208331
1.316463,-0.809535,0.198915
1.320519,-0.812727,0.189981
1.315230,-0.808565,0.170073
1.316028,-0.809193,0.160660
1.316780,-0.809784,0.151240
1.317486,-0.810340,0.141816
1.318147,-0.810861,0.132385
1.316413,-0.809496,0.122711
1.313847,-0.807476,0.112995
1.315937,-0.809121,0.103729
1.315630,-0.808880,0.094250
1.316847,-0.809837,0.084890
1.316448,-0.809524,0.075417
1.316789,-0.809792,0.065996
1.317085,-0.810025,0.056573
1.320477,-0.812694,0.047270
1.315968,-0.809146,0.037671
1.316127,-0.809271,0.028254
1.320956,-0.813071,0.018910
1.321024,-0.813125,0.009455
1.316332,-0.809432,0.000000
1.316309,-0.809414,-0.009419
1.316241,-0.809360,-0.018837
1.316127,-0.809271,-0.028254
1.315968,-0.809146,-0.037671
1.312211,-0.810059,0.236836
1.313328,-0.810942,0.227432
1.313624,-0.811176,0.217880
1.314650,-0.811987,0.208466
1.310962,-0.809073,0.198273
1.311894,-0.809809,0.188880
1.312781,-0.810510,0.179480
1.313622,-0.811175,0.170073
1.316760,-0.813654,0.160972
1.317512,-0.814248,0.151534
1.318219,-0.814807,0.142091
1.318880,-0.815329,0.132643
1.321842,-0.817670,0.123428
1.313806,-0.811320,0.113142
1.314328,-0.811732,0.103729
1.320287,-0.816441,0.094741
1.320720,-0.816783,0.085277
1.314839,-0.812136,0.075417
1.315179,-0.812405,0.065996
1.321747,-0.817594,0.056867
1.315724,-0.812835,0.047147
1.314359,-0.811757,0.037671
1.314518,-0.811882,0.028254
1.314631,-0.811972,0.018837
1.312346,-0.810166,0.009400
1.311584,-0.809564,0.000000
1.312346,-0.810166,-0.009400
1.312278,-0.810112,-0.018800
1.312165,-0.810023,-0.028199
1.318376,-0.818446,0.219005
1.318630,-0.818647,0.209408
1.319614,-0.819428,0.199943
1.320552,-0.820172,0.190471
1.315998,-0.816560,0.180178
1.316841,-0.817229,0.170734
1.310627,-0.812300,0.160347
1.311375,-0.812893,0.150946
1.312858,-0.814070,0.141632
1.315077,-0.815830,0.132385
1.315691,-0.816317,0.122950
1.316260,-0.816767,0.113510
1.316783,-0.817182,0.104066
1.313350,-0.814460,0.094311
1.313781,-0.814802,0.084890
1.311819,-0.813245,0.075319
1.312158,-0.813515,0.065910
1.312452,-0.813748,0.056499
1.310352,-0.812082,0.046994
1.309772,-0.811622,0.037573
1.306013,-0.808641,0.028089
1.306126,-0.808730,0.018726
1.310111,-0.811891,0.009394
1.310917,-0.812530,0.000000
1.310894,-0.812512,-0.009400
1.318661,-0.818672,-0.018923
1.318547,-0.818582,-0.028383
1.309662,-0.814991,0.227286
1.310731,-0.815842,0.217880
1.309428,-0.814805,0.208062
1.309629,-0.814965,0.198530
1.310559,-0.815705,0.189124
1.312999,-0.817647,0.179945
1.312285,-0.817079,0.170293
1.313080,-0.817712,0.160868
1.315387,-0.819548,0.151633
1.316092,-0.820109,0.142183
1.312854,-0.817532,0.132299
1.319706,-0.822986,0.123508
1.320276,-0.823440,0.114025
1.320801,-0.823858,0.104538
1.321280,-0.824239,0.095047
1.321713,-0.824584,0.085553
1.309598,-0.814940,0.075270
1.308373,-0.813965,0.065781
1.308667,-0.814199,0.056389
1.308915,-0.814396,0.046994
1.309118,-0.814558,0.037597
1.309276,-0.814684,0.028199
1.312518,-0.817264,0.018849
1.313368,-0.817941,0.009431
1.308697,-0.814223,0.000000
1.308674,-0.814205,-0.009394
1.313300,-0.817887,-0.018861
1.313187,-0.817797,-0.028291
1.313029,-0.817671,-0.037720
1.306015,-0.817124,0.226992
1.307080,-0.817976,0.217598
1.308100,-0.818792,0.208196
1.312947,-0.822671,0.199429
1.313879,-0.823417,0.189981
1.314767,-0.824127,0.180527
1.314833,-0.824180,0.170955
1.315629,-0.824818,0.161493
1.315603,-0.824797,0.151927
1.311644,-0.821628,0.141907
1.316191,-0.825267,0.132900
1.310578,-0.820775,0.122791
1.308029,-0.818736,0.113069
1.311664,-0.821645,0.103931
1.314478,-0.823896,0.094679
1.312570,-0.822369,0.085056
1.312175,-0.822053,0.075564
1.312514,-0.822325,0.066125
1.312808,-0.822560,0.056683
1.310716,-0.820886,0.047147
1.310139,-0.820424,0.037695
1.310297,-0.820550,0.028273
1.310410,-0.820641,0.018849
1.310477,-0.820695,0.009425
1.310500,-0.820713,0.000000
1.307354,-0.818196,-0.009400
1.307287,-0.818142,-0.018800
1.307174,-0.818052,-0.028199
1.310946,-0.824767,0.218583
1.309652,-0.823728,0.208735
1.310628,-0.824512,0.199301
1.313880,-0.827124,0.190226
1.318639,-0.830947,0.181341
1.319483,-0.831625,0.171836
1.320283,-0.832267,0.162326
1.310950,-0.824771,0.151534
1.311653,-0.825335,0.142091
1.309203,-0.823367,0.132299
1.309036,-0.823233,0.122791
1.309601,-0.823687,0.113363
1.310120,-0.824104,0.103931
1.309039,-0.823235,0.094373
1.308689,-0.822954,0.084890
1.308294,-0.822637,0.075417
1.307853,-0.822283,0.065953
1.308146,-0.822518,0.056536
1.308394,-0.822718,0.047116
1.308597,-0.822881,0.037695
1.307196,-0.821755,0.028236
1.307309,-0.821845,0.018825
1.307376,-0.821900,0.009412
1.307399,-0.821918,0.000000
1.311274,-0.825031,-0.009443
1.318222,-0.830612,-0.018996
1.306206,-0.824911,0.218020
1.307225,-0.825732,0.208600
1.305111,-0.824027,0.198658
1.306037,-0.824775,0.189247
1.305372,-0.824238,0.179596
1.307755,-0.826160,0.170404
1.306998,-0.825550,0.160764
1.305419,-0.824276,0.151044
1.306118,-0.824840,0.141632
1.306772,-0.825367,0.132214
1.302726,-0.822104,0.122313
1.307169,-0.825687,0.113289
1.307687,-0.826106,0.103864
1.308161,-0.826488,0.094434
1.308589,-0.826833,0.085001
1.308973,-0.827143,0.075564
1.309311,-0.827415,0.066125
1.308049,-0.826397,0.056610
1.309852,-0.827852,0.047239
1.308499,-0.826761,0.037744
1.308657,-0.826888,0.028310
1.310326,-0.828234,0.018898
1.310394,-0.828289,0.009449
1.314308,-0.831446,0.000000
1.314286,-0.831428,-0.009480
1.314218,-0.831373,-0.018960
1.314104,-0.831282,-0.028438
1.306533,-0.828665,0.208735
1.305194,-0.827580,0.198915
1.304577,-0.827081,0.189247
1.305457,-0.827794,0.179829
1.307838,-0.829720,0.170624
1.303991,-0.826606,0.160556
1.304734,-0.827208,0.151142
1.305432,-0.827773,0.141724
1.306086,-0.828302,0.132299
1.305145,-0.827541,0.122711
1.305707,-0.827996,0.113289
1.306225,-0.828415,0.103864
1.306698,-0.828798,0.094434
1.307126,-0.829144,0.085001
1.307509,-0.829454,0.075564
1.308623,-0.830356,0.066168
1.311247,-0.832480,0.056830
1.311495,-0.832681,0.047362
1.311698,-0.832846,0.037892
1.314188,-0.834861,0.028475
1.311969,-0.833065,0.018947
1.308928,-0.830603,0.009449
1.308951,-0.830622,0.000000
1.307374,-0.829345,-0.009437
1.307306,-0.829290,-0.018874
1.308748,-0.830457,-0.028346
1.308894,-0.834125,0.209408
1.303711,-0.829914,0.198915
1.303096,-0.829414,0.189247
1.303975,-0.830128,0.179829
1.304808,-0.830805,0.170404
1.302510,-0.828938,0.160556
1.304024,-0.830168,0.151240
1.303949,-0.830107,0.141724
1.305375,-0.831266,0.132385
1.305210,-0.831131,0.122870
1.304224,-0.830331,0.113289
1.304741,-0.830751,0.103864
1.308312,-0.833652,0.094679
1.307965,-0.833370,0.085166
1.308349,-0.833682,0.075711
1.309462,-0.834586,0.066297
1.308980,-0.834194,0.056794
1.308452,-0.833765,0.047301
1.305551,-0.831409,0.037744
1.305708,-0.831536,0.028310
1.305820,-0.831628,0.018874
1.305112,-0.831052,0.009431
1.305134,-0.831070,0.000000
1.305112,-0.831052,-0.009431
1.307373,-0.832889,-0.018898
1.307260,-0.832797,-0.028346
1.303011,-0.832843,0.199044
1.303166,-0.832970,0.189492
1.300966,-0.831175,0.179596
1.301798,-0.831854,0.170183
1.297189,-0.828096,0.160035
1.300242,-0.830585,0.150946
1.300937,-0.831152,0.141540
1.306993,-0.836090,0.132728
1.306056,-0.835326,0.123109
1.306619,-0.835785,0.113657
1.308684,-0.837469,0.104336
1.307610,-0.836593,0.094741
1.308038,-0.836942,0.085277
1.306873,-0.835992,0.075711
1.307211,-0.836268,0.066254
1.307503,-0.836506,0.056794
1.306202,-0.835445,0.047270
1.306404,-0.835610,0.037818
1.305786,-0.835106,0.028346
1.303574,-0.833302,0.018861
1.303641,-0.833357,0.009431
1.303664,-0.833375,0.000000
1.303641,-0.833357,-0.009431
1.312873,-0.840885,-0.019009
1.299329,-0.834938,0.198787
1.298715,-0.834434,0.189124
1.299590,-0.835151,0.179712
1.300421,-0.835832,0.170293
1.298130,-0.833954,0.160451
1.298869,-0.834560,0.151044
1.305724,-0.840180,0.142367
1.304836,-0.839452,0.132728
1.303902,-0.838686,0.123109
1.304463,-0.839146,0.113657
1.304980,-0.839570,0.104201
1.305452,-0.839957,0.094741
1.305879,-0.840307,0.085277
1.306262,-0.840620,0.075810
1.304281,-0.838997,0.066211
1.304573,-0.839236,0.056757
1.304820,-0.839438,0.047301
1.308887,-0.842773,0.037965
1.309045,-0.842902,0.028475
1.309157,-0.842994,0.018984
1.309225,-0.843050,0.009492
1.306927,-0.841166,0.000000
1.306905,-0.841148,-0.009474
1.306838,-0.841092,-0.018947
1.298745,-0.837664,0.198915
1.294300,-0.834008,0.188635
1.295172,-0.834725,0.179247
1.301372,-0.839825,0.170624
1.302159,-0.840471,0.161180
1.302900,-0.841081,0.151731
1.303597,-0.841654,0.142275
1.304249,-0.842190,0.132814
1.302546,-0.840790,0.123109
1.303107,-0.841251,0.113657
1.303623,-0.841676,0.104201
1.304095,-0.842063,0.094741
1.304521,-0.842414,0.085277
1.304903,-0.842728,0.075810
1.305240,-0.843005,0.066340
1.305532,-0.843245,0.056867
1.307323,-0.844718,0.047454
1.307525,-0.844885,0.037965
1.303821,-0.841839,0.028383
1.300072,-0.838755,0.018861
1.304001,-0.841986,0.009462
1.298617,-0.837558,0.000000
1.298594,-0.837540,-0.009419
1.307795,-0.845107,-0.018984
1.304121,-0.846055,0.190471
1.305000,-0.846781,0.180992
1.300469,-0.843039,0.170734
1.301254,-0.843688,0.161284
1.301995,-0.844300,0.151829
1.302691,-0.844874,0.142367
1.301806,-0.844143,0.132728
1.300105,-0.842739,0.123030
1.300665,-0.843202,0.113584
1.301180,-0.843627,0.104133
1.301651,-0.844015,0.094679
1.302076,-0.844367,0.085221
1.303227,-0.845317,0.075810
1.303563,-0.845595,0.066340
1.303855,-0.845835,0.056867
1.301019,-0.843493,0.047270
1.304303,-0.846206,0.037916
1.301376,-0.843789,0.028365
1.304572,-0.846428,0.018960
1.301555,-0.843937,0.009455
1.301578,-0.843955,0.000000
1.301555,-0.843937,-0.009455
1.298784,-0.845220,0.189859
1.299659,-0.845945,0.180410
1.299724,-0.845999,0.170844
1.300509,-0.846649,0.161389
1.301249,-0.847263,0.151927
1.301944,-0.847839,0.142459
1.302595,-0.848378,0.132986
1.300131,-0.846336,0.123189
1.299922,-0.846163,0.113657
1.297364,-0.844043,0.103931
1.297833,-0.844432,0.094495
1.301332,-0.847332,0.085277
1.301713,-0.847647,0.075810
1.302049,-0.847925,0.066340
1.302340,-0.848167,0.056867
1.301816,-0.847733,0.047362
1.301248,-0.847262,0.037867
1.298325,-0.844840,0.028328
1.293818,-0.841104,0.018812
1.293884,-0.841159,0.009406
1.293906,-0.841177,0.000000
1.300044,-0.846264,-0.009455
1.297399,-0.847605,0.180294
1.297463,-0.847659,0.170734
1.298246,-0.848310,0.161284
1.297454,-0.847652,0.151633
1.298147,-0.848228,0.142183
1.298030,-0.848130,0.132643
1.298633,-0.848632,0.123189
1.299959,-0.849735,0.113804
1.300473,-0.850163,0.104336
1.300943,-0.850553,0.094863
1.301368,-0.850907,0.085387
1.301749,-0.851224,0.075908
1.296708,-0.847031,0.066125
1.301607,-0.851106,0.056904
1.300316,-0.850032,0.047362
1.297443,-0.847642,0.037793
1.296830,-0.847133,0.028328
1.296942,-0.847225,0.018886
1.297009,-0.847281,0.009443
1.297031,-0.847299,0.000000
1.295212,-0.850943,0.180294
1.293751,-0.849721,0.170514
1.294532,-0.850374,0.161076
1.297558,-0.852904,0.151927
1.298251,-0.853483,0.142459
1.298899,-0.854025,0.132986
1.299503,-0.854530,0.123508
1.297767,-0.853078,0.113804
1.298280,-0.853508,0.104336
1.298749,-0.853900,0.094863
1.302237,-0.856816,0.085608
1.302618,-0.857135,0.076104
1.302954,-0.857415,0.066597
1.303245,-0.857659,0.057088
1.303491,-0.857865,0.047577
1.290655,-0.847132,0.037646
1.293111,-0.849186,0.028291
1.295523,-0.851203,0.018898
1.295590,-0.851258,0.009449
1.295612,-0.851277,0.000000
1.297124,-0.852541,-0.009462
1.299786,-0.858508,0.171616
1.296762,-0.855969,0.161597
1.294450,-0.854029,0.151731
1.294378,-0.853969,0.142183
1.293498,-0.853230,0.132557
1.294098,-0.853734,0.123109
1.293127,-0.852919,0.113510
1.293638,-0.853348,0.104066
1.292576,-0.852457,0.094495
1.294528,-0.854095,0.085166
1.293376,-0.853128,0.075613
1.293709,-0.853407,0.066168
1.293998,-0.853650,0.056720
1.296539,-0.855783,0.047362
1.294442,-0.854023,0.037818
1.292300,-0.852225,0.028310
1.291645,-0.851675,0.018861
1.291711,-0.851731,0.009431
1.291734,-0.851750,0.000000
1.292477,-0.852374,-0.009437
1.298061,-0.861115,0.171616
1.291999,-0.856007,0.161180
1.291211,-0.855343,0.151534
1.293423,-0.857207,0.142275
1.297116,-0.860319,0.133157
1.297718,-0.860827,0.123667
1.298276,-0.861297,0.114172
1.298789,-0.861729,0.104673
1.299258,-0.862125,0.095170
1.302737,-0.865056,0.085884
1.297007,-0.860227,0.075957
1.297341,-0.860509,0.066468
1.295338,-0.858821,0.056867
1.295583,-0.859027,0.047393
1.295783,-0.859196,0.037916
1.295174,-0.858683,0.028420
1.296050,-0.859421,0.018960
1.302999,-0.865277,0.009535
1.292742,-0.860199,0.171065
1.292762,-0.860215,0.161493
1.293497,-0.860837,0.152025
1.294187,-0.861420,0.142551
1.294072,-0.861323,0.132986
1.294673,-0.861831,0.123508
1.294468,-0.861658,0.113952
1.294979,-0.862090,0.104471
1.295446,-0.862486,0.094986
1.294344,-0.861554,0.085387
1.290147,-0.858003,0.075613
1.289716,-0.857639,0.066125
1.290004,-0.857882,0.056683
1.291010,-0.858734,0.047270
1.290446,-0.858257,0.037793
1.289838,-0.857742,0.028328
1.294529,-0.861710,0.018960
1.294596,-0.861766,0.009480
1.294254,-0.865101,0.161909
1.291196,-0.862505,0.151927
1.289607,-0.861157,0.142183
1.292529,-0.863637,0.132986
1.293889,-0.864791,0.123587
1.292164,-0.863327,0.113878
1.292674,-0.863760,0.104403
1.295423,-0.866093,0.095108
1.295846,-0.866452,0.085608
1.293940,-0.864834,0.075957
1.294273,-0.865117,0.066468
1.301419,-0.871182,0.057309
1.294806,-0.865570,0.047485
1.295006,-0.865739,0.037990
1.292875,-0.863930,0.028438
1.292223,-0.863377,0.018947
1.292290,-0.863434,0.009474
1.298411,-0.868629,0.000000
1.293458,-0.868012,0.152417
1.288083,-0.863434,0.142183
1.288725,-0.863981,0.132728
1.289323,-0.864490,0.123269
1.286081,-0.861728,0.113437
1.286589,-0.862161,0.103999
1.291611,-0.866440,0.094925
1.288992,-0.864208,0.085221
1.289368,-0.864529,0.075760
1.289700,-0.864811,0.066297
1.288466,-0.863760,0.056757
1.287948,-0.863319,0.047270
1.288147,-0.863488,0.037818
1.288301,-0.863620,0.028365
1.287651,-0.863066,0.018898
1.287717,-0.863122,0.009449
1.289261,-0.864438,0.000000
1.288195,-0.868750,0.152025
1.283587,-0.864804,0.141907
1.284227,-0.865352,0.132471
1.284822,-0.865862,0.123030
1.286888,-0.867631,0.113731
1.287396,-0.868066,0.104268
1.288618,-0.869113,0.094863
1.289038,-0.869472,0.085387
1.288656,-0.869144,0.075859
1.288228,-0.868778,0.066340
1.289274,-0.869674,0.056904
1.288758,-0.869232,0.047393
1.288957,-0.869403,0.037916
1.289871,-0.870185,0.028457
1.290741,-0.870930,0.018984
1.293846,-0.873589,0.009517
1.288301,-0.872126,0.152221
1.284455,-0.868822,0.142183
1.285095,-0.869372,0.132728
1.285691,-0.869883,0.123269
1.286242,-0.870357,0.113804
1.286750,-0.870794,0.104336
1.284185,-0.868590,0.094618
1.287633,-0.871552,0.085387
1.288008,-0.871875,0.075908
1.288340,-0.872159,0.066425
1.288627,-0.872406,0.056941
1.288870,-0.872615,0.047454
1.289827,-0.873437,0.037990
1.289981,-0.873570,0.028494
1.290092,-0.873665,0.018996
1.290917,-0.874373,0.009504
1.284236,-0.872671,0.142367
1.283366,-0.871921,0.132728
1.283961,-0.872434,0.123269
1.284512,-0.872909,0.113804
1.285019,-0.873346,0.104336
1.286993,-0.875049,0.094986
1.287412,-0.875411,0.085497
1.287788,-0.875735,0.076006
1.288119,-0.876020,0.066511
1.287649,-0.875615,0.056978
1.287135,-0.875172,0.047454
1.287333,-0.875343,0.037965
1.287488,-0.875476,0.028475
1.287598,-0.875571,0.018984
1.287664,-0.875628,0.009492
1.283425,-0.875619,0.142459
1.284064,-0.876172,0.132986
1.284659,-0.876687,0.123508
1.285210,-0.877164,0.114025
1.286472,-0.878256,0.104606
1.286935,-0.878657,0.095108
1.287354,-0.879020,0.085608
1.284708,-0.876730,0.075908
1.285039,-0.877016,0.066425
1.284569,-0.876609,0.056904
1.282544,-0.874856,0.047331
1.282742,-0.875027,0.037867
1.282896,-0.875160,0.028402
1.285273,-0.877219,0.018972
1.286095,-0.877930,0.009492
1.279506,-0.875826,0.132643
1.279346,-0.875687,0.123109
1.279894,-0.876163,0.113657
1.279645,-0.875948,0.104133
1.280106,-0.876348,0.094679
1.281276,-0.877364,0.085277
1.281649,-0.877688,0.075810
1.281978,-0.877975,0.066340
1.283018,-0.878878,0.056904
1.287787,-0.883021,0.047607
1.287986,-0.883193,0.038088
1.288895,-0.883983,0.028586
1.289005,-0.884079,0.019058
1.285290,-0.884525,0.123906
1.283586,-0.883040,0.114172
1.281836,-0.881514,0.104471
1.278536,-0.878636,0.094679
1.282715,-0.882280,0.085497
1.280830,-0.880636,0.075859
1.281159,-0.880923,0.066383
1.281444,-0.881172,0.056904
1.281685,-0.881382,0.047423
1.281883,-0.881554,0.037941
1.282036,-0.881688,0.028457
1.282146,-0.881784,0.018972
1.276440,-0.882029,0.132728
1.277031,-0.882547,0.123269
1.277578,-0.883027,0.113804
