1.252134,-0.483387,0.122790
1.252773,-0.483737,0.114625
1.252494,-0.483584,0.106376
1.253918,-0.484365,0.098282
1.254425,-0.484643,0.090105
1.254013,-0.484417,0.081863
1.254431,-0.484646,0.073686
1.254806,-0.484851,0.065505
1.255136,-0.485032,0.057323
1.255423,-0.485189,0.049138
1.257418,-0.486283,0.041012
1.257617,-0.486392,0.032812
1.260569,-0.490746,0.232679
1.260933,-0.490947,0.224282
1.259522,-0.490170,0.215570
1.255464,-0.487936,0.206429
1.256552,-0.488535,0.198233
1.254126,-0.487200,0.189467
1.255991,-0.488226,0.181415
1.253469,-0.486838,0.172701
1.251766,-0.485901,0.164153
1.251757,-0.485895,0.155867
1.253443,-0.486824,0.147808
1.253345,-0.486769,0.139523
1.254073,-0.487170,0.131343
1.254757,-0.487547,0.123158
1.255397,-0.487899,0.114968
1.254246,-0.487266,0.106615
1.254797,-0.487569,0.098429
1.256178,-0.488329,0.090307
1.255767,-0.488103,0.082047
1.252688,-0.486408,0.073630
1.254811,-0.487577,0.065554
1.253391,-0.486795,0.057280
1.253677,-0.486953,0.049101
1.249541,-0.484676,0.040767
1.255869,-0.488159,0.032787
1.262154,-0.491619,0.024720
1.260140,-0.493250,0.241257
1.256240,-0.491094,0.231995
1.256600,-0.491293,0.223622
1.258643,-0.492423,0.215570
1.258914,-0.492572,0.207193
1.250482,-0.487911,0.197352
1.250653,-0.488005,0.189045
1.251646,-0.488554,0.180876
1.250860,-0.488120,0.172444
1.251764,-0.488620,0.164275
1.253493,-0.489576,0.156216
1.253440,-0.489546,0.147918
1.248120,-0.486605,0.139002
1.248844,-0.487006,0.130853
1.249525,-0.487382,0.122698
1.248418,-0.486770,0.114368
1.249010,-0.487097,0.106217
1.252177,-0.488848,0.098282
1.254430,-0.490093,0.090240
1.253145,-0.489383,0.081925
1.253563,-0.489614,0.073741
1.255685,-0.490787,0.065653
1.253393,-0.489520,0.057323
1.252804,-0.489195,0.049101
1.252171,-0.488845,0.040890
1.253243,-0.489437,0.032738
1.253397,-0.489523,0.024555
1.248093,-0.490468,0.230628
1.249308,-0.491143,0.222468
1.251342,-0.492275,0.214458
1.252470,-0.492902,0.206276
1.252690,-0.493024,0.197939
1.254595,-0.494083,0.189889
1.255591,-0.494638,0.181684
1.252210,-0.492757,0.172830
1.253115,-0.493260,0.164642
1.246163,-0.489394,0.155402
1.246975,-0.489846,0.147257
1.247743,-0.490273,0.139106
1.248467,-0.490675,0.130951
1.249147,-0.491054,0.122790
1.248042,-0.490439,0.114454
1.248634,-0.490768,0.106296
1.243953,-0.488165,0.097694
1.244455,-0.488444,0.089566
1.244914,-0.488699,0.081434
1.247946,-0.490386,0.073465
1.251810,-0.492535,0.065505
1.252139,-0.492718,0.057323
1.252425,-0.492876,0.049138
1.252666,-0.493011,0.040951
1.250243,-0.491663,0.032689
1.250396,-0.491748,0.024518
1.254875,-0.494239,0.016407
1.250730,-0.494430,0.231311
1.249364,-0.493668,0.222633
1.245363,-0.491434,0.213505
1.246485,-0.492060,0.205359
1.245836,-0.491698,0.196912
1.246869,-0.492275,0.188763
1.249589,-0.493793,0.180876
1.247938,-0.492872,0.172316
1.247973,-0.492891,0.164030
1.246228,-0.491917,0.155518
1.245304,-0.491401,0.147147
1.246071,-0.491829,0.139002
1.240711,-0.488836,0.130167
1.244864,-0.491155,0.122423
1.245498,-0.491509,0.114282
1.252181,-0.495241,0.106695
1.246636,-0.492144,0.097988
1.247139,-0.492425,0.089835
1.247598,-0.492682,0.081679
1.248014,-0.492914,0.073520
1.247514,-0.492635,0.065309
1.247842,-0.492818,0.057151
1.248126,-0.492977,0.048990
1.249240,-0.493598,0.040859
1.249437,-0.493708,0.032689
1.250463,-0.494281,0.024536
1.250572,-0.494342,0.016358
1.243336,-0.493317,0.238425
1.244590,-0.494021,0.230286
1.244081,-0.493735,0.221808
1.240940,-0.491973,0.212870
1.242058,-0.492600,0.204748
1.243132,-0.493202,0.196619
1.242435,-0.492812,0.188201
1.243421,-0.493364,0.180069
1.244362,-0.493893,0.171930
1.245261,-0.494397,0.163785
1.243517,-0.493418,0.155285
1.244326,-0.493872,0.147147
1.245092,-0.494302,0.139002
1.245814,-0.494707,0.130853
1.245624,-0.494600,0.122607
1.246258,-0.494956,0.114454
1.245110,-0.494312,0.106137
1.247396,-0.495594,0.098135
1.247899,-0.495876,0.089970
1.245747,-0.494669,0.081618
1.246162,-0.494902,0.073465
1.252631,-0.498531,0.065653
1.252961,-0.498715,0.057451
1.245402,-0.494476,0.048917
1.245642,-0.494610,0.040767
1.245838,-0.494720,0.032615
1.245119,-0.494317,0.024444
1.245228,-0.494378,0.016297
1.245293,-0.494415,0.008148
1.261317,-0.506167,0.242319
1.262591,-0.506884,0.234047
1.247492,-0.498380,0.222633
1.246940,-0.498069,0.214141
1.248063,-0.498701,0.205971
1.242247,-0.495425,0.196619
1.243277,-0.496005,0.188482
1.244263,-0.496561,0.180338
1.245205,-0.497091,0.172187
1.246104,-0.497598,0.164030
1.240036,-0.494180,0.154936
1.240842,-0.494634,0.146816
1.241606,-0.495064,0.138690
1.242325,-0.495469,0.130559
1.248207,-0.498782,0.122974
1.251447,-0.500607,0.115054
1.249435,-0.499474,0.106615
1.249983,-0.499783,0.098429
1.250487,-0.500067,0.090240
1.249208,-0.499346,0.081925
1.247015,-0.498111,0.073575
1.248256,-0.498810,0.065456
1.245973,-0.497524,0.057151
1.246257,-0.497684,0.048990
1.246497,-0.497819,0.040828
1.246693,-0.497930,0.032664
1.244233,-0.496544,0.024444
1.244341,-0.496605,0.016297
1.244407,-0.496642,0.008148
1.239004,-0.496282,0.237894
1.238538,-0.496018,0.229431
1.241458,-0.497670,0.221643
1.240902,-0.497355,0.213188
1.242019,-0.497987,0.205054
1.243092,-0.498594,0.196912
1.244122,-0.499176,0.188763
1.245108,-0.499734,0.180607
1.243461,-0.498803,0.172059
1.244359,-0.499310,0.163908
1.257315,-0.506639,0.157379
1.245157,-0.499762,0.147477
1.245923,-0.500195,0.139315
1.238849,-0.496194,0.130265
1.253391,-0.504419,0.123618
1.251428,-0.503309,0.115140
1.252021,-0.503644,0.106934
1.252570,-0.503955,0.098724
1.253075,-0.504240,0.090510
1.251799,-0.503519,0.082170
1.244394,-0.499330,0.073465
1.241287,-0.497573,0.065113
1.241613,-0.497758,0.056979
1.245375,-0.499885,0.048990
1.241265,-0.497561,0.040675
1.246682,-0.500624,0.032689
1.246834,-0.500711,0.024518
1.241721,-0.497819,0.016272
1.241786,-0.497855,0.008136
1.247031,-0.500822,0.000000
1.242807,-0.501163,0.247287
1.236403,-0.497525,0.237540
1.237648,-0.498233,0.229431
1.238851,-0.498916,0.221313
1.239151,-0.499087,0.213029
1.240266,-0.499720,0.204901
1.237037,-0.497886,0.196032
1.237201,-0.497979,0.187779
1.238181,-0.498535,0.179665
1.239980,-0.499557,0.171673
1.240874,-0.500065,0.163541
1.241725,-0.500548,0.155402
1.242533,-0.501007,0.147257
1.241567,-0.500458,0.138898
1.242286,-0.500867,0.130755
1.239499,-0.499284,0.122239
1.240129,-0.499642,0.114110
1.248517,-0.504406,0.106695
1.249065,-0.504717,0.098503
1.245231,-0.502539,0.089970
1.245689,-0.502800,0.081802
1.246104,-0.503035,0.073630
1.246475,-0.503246,0.065456
1.240721,-0.499978,0.056979
1.241003,-0.500138,0.048843
1.247326,-0.503729,0.040920
1.243176,-0.501372,0.032615
1.243328,-0.501459,0.024463
1.244307,-0.502015,0.016321
1.246111,-0.503039,0.008173
1.246133,-0.503052,0.000000
1.243231,-0.505309,0.247653
1.243674,-0.505562,0.239310
1.238939,-0.502857,0.229944
1.236717,-0.501587,0.221148
1.237016,-0.501758,0.212870
1.234696,-0.500433,0.204137
1.234045,-0.500060,0.195738
1.235066,-0.500644,0.187638
1.236044,-0.501203,0.179531
1.236979,-0.501737,0.171416
1.236147,-0.501261,0.163051
1.236994,-0.501745,0.154936
1.237798,-0.502205,0.146816
1.238558,-0.502639,0.138690
1.239276,-0.503049,0.130559
1.245137,-0.506398,0.122974
1.245770,-0.506760,0.114797
1.245495,-0.506602,0.106535
1.245175,-0.506419,0.098282
1.246543,-0.507201,0.090173
1.246135,-0.506968,0.081925
1.246549,-0.507205,0.073741
1.246053,-0.506921,0.065505
1.242043,-0.504630,0.057108
1.238855,-0.502809,0.048806
1.239093,-0.502945,0.040675
1.239288,-0.503056,0.032542
1.239440,-0.503143,0.024407
1.239548,-0.503205,0.016272
1.237877,-0.502250,0.008124
1.239635,-0.503254,0.000000
1.243955,-0.505722,-0.008167
1.242403,-0.507343,0.247653
1.234308,-0.502700,0.237540
1.235551,-0.503413,0.229431
1.233328,-0.502138,0.220654
1.234481,-0.502799,0.212552
1.236657,-0.504047,0.196325
1.237680,-0.504634,0.188201
1.235222,-0.503224,0.179531
1.235296,-0.503267,0.171288
1.236186,-0.503777,0.163173
1.241341,-0.506734,0.155634
1.237837,-0.504724,0.146926
1.238597,-0.505160,0.138794
1.243631,-0.508047,0.131147
1.243443,-0.507939,0.122882
1.238890,-0.505328,0.114196
1.238611,-0.505168,0.105978
1.232233,-0.501510,0.097252
1.232729,-0.501795,0.089161
1.233182,-0.502054,0.081066
1.238789,-0.505270,0.073299
1.244356,-0.508463,0.065456
1.244682,-0.508650,0.057280
1.243232,-0.507818,0.049027
1.243471,-0.507955,0.040859
1.243667,-0.508067,0.032689
1.242084,-0.507160,0.024481
1.235254,-0.503242,0.016223
1.235319,-0.503280,0.008112
1.235340,-0.503292,0.000000
1.242258,-0.507260,-0.008161
1.240894,-0.509554,0.255999
1.234567,-0.505909,0.246189
1.233296,-0.505176,0.237540
1.237099,-0.507367,0.229944
1.237445,-0.507567,0.221643
1.238602,-0.508233,0.213505
1.236290,-0.506901,0.204748
1.240785,-0.509492,0.197206
1.233234,-0.505140,0.187638
1.234210,-0.505703,0.179531
1.235143,-0.506240,0.171416
1.238612,-0.508239,0.163663
1.237740,-0.507737,0.155285
1.240266,-0.509192,0.147367
1.239304,-0.508638,0.139002
1.241746,-0.510045,0.131049
1.240695,-0.509440,0.122698
1.237010,-0.507316,0.114110
1.237595,-0.507653,0.105978
1.238137,-0.507965,0.097841
1.238635,-0.508253,0.089700
1.242550,-0.510508,0.081802
1.242963,-0.510746,0.073630
1.243333,-0.510959,0.065456
1.242793,-0.510648,0.057237
1.242210,-0.510312,0.049027
1.235520,-0.506458,0.040613
1.235715,-0.506570,0.032493
1.235866,-0.506657,0.024371
1.235974,-0.506719,0.016248
1.236039,-0.506757,0.008124
1.239526,-0.508766,0.000000
1.240371,-0.509253,-0.008155
1.242039,-0.510214,-0.016333
1.239142,-0.511255,0.255810
1.239628,-0.511536,0.247470
1.234957,-0.508834,0.238071
1.242170,-0.513006,0.231140
1.239107,-0.511235,0.222138
1.238556,-0.510916,0.213664
1.241380,-0.512550,0.205818
1.243480,-0.513764,0.189467
1.240176,-0.511853,0.180607
1.241113,-0.512395,0.172444
1.238571,-0.510924,0.163785
1.238560,-0.510918,0.155518
1.238504,-0.510885,0.147257
1.239264,-0.511325,0.139106
1.239981,-0.511740,0.130951
1.236346,-0.509637,0.122331
1.236111,-0.509501,0.114110
1.236696,-0.509839,0.105978
1.236374,-0.509653,0.097767
1.236871,-0.509941,0.089633
1.235598,-0.509204,0.081373
1.236009,-0.509442,0.073244
1.236376,-0.509654,0.065113
1.235835,-0.509342,0.056936
1.233521,-0.508003,0.048696
1.236354,-0.509642,0.040675
1.236548,-0.509754,0.032542
1.236700,-0.509842,0.024407
1.236808,-0.509904,0.016272
1.237738,-0.510442,0.008142
1.236894,-0.509954,0.000000
1.236872,-0.509942,-0.008136
1.241135,-0.512408,-0.016333
1.235678,-0.511991,0.255243
1.236161,-0.512271,0.246921
1.235747,-0.512031,0.238425
1.236139,-0.512258,0.230115
1.237338,-0.512955,0.221973
1.235079,-0.511643,0.213188
1.236189,-0.512287,0.205054
1.237255,-0.512907,0.196912
1.229717,-0.508528,0.187357
1.230690,-0.509093,0.179262
1.232477,-0.510131,0.171288
1.233364,-0.510647,0.163173
1.237644,-0.513133,0.155518
1.238447,-0.513599,0.147367
1.239208,-0.514041,0.139211
1.238203,-0.513458,0.130853
1.236293,-0.512348,0.122423
1.236059,-0.512212,0.114196
1.236644,-0.512552,0.106057
1.237185,-0.512866,0.097914
1.235957,-0.512153,0.089633
1.235548,-0.511915,0.081434
1.233369,-0.510649,0.073134
1.233735,-0.510862,0.065015
1.236650,-0.512555,0.057022
1.234339,-0.511213,0.048770
1.234576,-0.511350,0.040644
1.234770,-0.511463,0.032517
1.231463,-0.509542,0.024315
1.231570,-0.509604,0.016211
1.231635,-0.509642,0.008106
1.236844,-0.512668,0.000000
1.236823,-0.512656,-0.008142
1.236758,-0.512618,-0.016284
1.236650,-0.512555,-0.024426
1.238606,-0.517620,0.256188
1.239942,-0.518401,0.248019
1.236985,-0.516673,0.238956
1.237379,-0.516903,0.230628
1.232618,-0.514121,0.221313
1.232064,-0.513798,0.212870
1.232317,-0.513945,0.204595
1.233380,-0.514566,0.196472
1.233544,-0.514662,0.188201
1.235375,-0.515732,0.180204
1.233740,-0.514776,0.171673
1.233771,-0.514795,0.163418
1.233757,-0.514787,0.155169
1.235416,-0.515756,0.147147
1.235315,-0.515697,0.138898
1.236889,-0.516617,0.130853
1.236701,-0.516507,0.122607
1.236468,-0.516371,0.114368
1.231889,-0.513695,0.105739
1.232427,-0.514010,0.097620
1.232923,-0.514299,0.089498
1.233376,-0.514564,0.081373
1.233785,-0.514803,0.073244
1.235014,-0.515521,0.065162
1.234475,-0.515206,0.056979
1.235618,-0.515874,0.048880
1.235856,-0.516013,0.040736
1.232597,-0.514109,0.032493
1.230158,-0.512684,0.024315
1.230266,-0.512746,0.016211
1.230330,-0.512784,0.008106
1.231215,-0.513301,0.000000
1.231193,-0.513289,-0.008112
1.240626,-0.518800,-0.016358
1.242244,-0.519746,-0.024573
1.224414,-0.512185,0.261616
1.224083,-0.511991,0.253163
1.225401,-0.512765,0.245090
1.228374,-0.514510,0.237363
1.229609,-0.515234,0.229260
1.236755,-0.519428,0.222303
1.237910,-0.520106,0.214141
1.233055,-0.517257,0.204901
1.234118,-0.517881,0.196766
1.235992,-0.518980,0.188763
1.230132,-0.515541,0.179531
1.232772,-0.517090,0.171673
1.233659,-0.517611,0.163541
1.228506,-0.514587,0.154587
1.229303,-0.515055,0.146485
1.230057,-0.515497,0.138378
1.230767,-0.515914,0.130265
1.229718,-0.515298,0.121963
1.231201,-0.516169,0.113939
1.230923,-0.516005,0.105739
1.231461,-0.516321,0.097620
1.231956,-0.516612,0.089498
1.232408,-0.516877,0.081373
1.230234,-0.515601,0.073079
1.230599,-0.515815,0.064966
1.231783,-0.516510,0.056893
1.229477,-0.515157,0.048659
1.230575,-0.515801,0.040583
1.232493,-0.516927,0.032517
1.236093,-0.519039,0.024463
1.234476,-0.518090,0.016284
1.234540,-0.518128,0.008142
1.240599,-0.521684,0.000000
1.234540,-0.518128,-0.008142
1.234476,-0.518090,-0.016284
1.245578,-0.524606,-0.024665
1.247150,-0.525529,-0.032934
1.238602,-0.523581,0.265128
1.235752,-0.521901,0.255999
1.232003,-0.519690,0.246738
1.229046,-0.517947,0.237717
1.230281,-0.518675,0.229602
1.231473,-0.519378,0.221478
1.232623,-0.520056,0.213346
1.233729,-0.520708,0.205207
1.229679,-0.518320,0.196179
1.234106,-0.520930,0.188623
1.231667,-0.519492,0.179934
1.233451,-0.520544,0.171930
1.230919,-0.519051,0.163296
1.230905,-0.519043,0.155053
1.231703,-0.519513,0.146926
1.232458,-0.519958,0.138794
1.230598,-0.518862,0.130363
1.230408,-0.518750,0.122147
1.229316,-0.518106,0.113853
1.229896,-0.518448,0.105739
1.229574,-0.518258,0.097547
1.230928,-0.519056,0.089498
1.231380,-0.519323,0.081373
1.231788,-0.519564,0.073244
1.231293,-0.519272,0.065064
1.232476,-0.519969,0.056979
1.231895,-0.519627,0.048806
1.232132,-0.519766,0.040675
1.232325,-0.519880,0.032542
1.229892,-0.518446,0.024352
1.227415,-0.516985,0.016198
1.227479,-0.517023,0.008099
1.227501,-0.517036,0.000000
1.230925,-0.519055,-0.008124
1.230860,-0.519017,-0.016248
1.239366,-0.524031,-0.024555
1.244382,-0.526988,-0.032885
1.227536,-0.519800,0.262787
1.228057,-0.520109,0.254486
1.227687,-0.519890,0.246006
1.228118,-0.520145,0.237717
1.229351,-0.520875,0.229602
1.229694,-0.521078,0.221313
1.229991,-0.521254,0.213029
1.231094,-0.521907,0.204901
1.232155,-0.522535,0.196766
1.233172,-0.523137,0.188623
1.233371,-0.523255,0.172059
1.233404,-0.523274,0.163785
1.226555,-0.519220,0.154587
1.226495,-0.519184,0.146375
1.227246,-0.519629,0.138274
1.227955,-0.520049,0.130167
1.228621,-0.520443,0.122055
1.229244,-0.520812,0.113939
1.229824,-0.521155,0.105818
1.230362,-0.521473,0.097694
1.231714,-0.522274,0.089633
1.231307,-0.522033,0.081434
1.231716,-0.522275,0.073299
1.232081,-0.522491,0.065162
1.232404,-0.522682,0.057022
1.230104,-0.521321,0.048770
1.230340,-0.521460,0.040644
1.230533,-0.521575,0.032517
1.230683,-0.521664,0.024389
1.229930,-0.521218,0.016248
1.230855,-0.521765,0.008130
1.235179,-0.524325,0.000000
1.234297,-0.523803,-0.008155
1.234232,-0.523765,-0.016309
1.234985,-0.524210,-0.024481
1.243437,-0.529213,-0.032885
1.228301,-0.522971,0.263177
1.227980,-0.522780,0.254675
1.228457,-0.523063,0.246372
1.229735,-0.523823,0.238248
1.230123,-0.524054,0.229944
1.229619,-0.523754,0.221478
1.226522,-0.521913,0.212552
1.225073,-0.521052,0.203984
1.225277,-0.521174,0.195738
1.226288,-0.521775,0.187638
1.227257,-0.522350,0.179531
1.228182,-0.522900,0.171416
1.229065,-0.523425,0.163296
1.225636,-0.521387,0.154587
1.225576,-0.521351,0.146375
1.225471,-0.521289,0.138169
1.226179,-0.521710,0.130069
1.225987,-0.521596,0.121871
1.228322,-0.522983,0.113939
1.229758,-0.523837,0.105898
1.230295,-0.524156,0.097767
1.230790,-0.524450,0.089633
1.231241,-0.524718,0.081495
1.231649,-0.524961,0.073354
1.232015,-0.525178,0.065211
1.232337,-0.525370,0.057065
1.232617,-0.525536,0.048917
1.234572,-0.526698,0.040828
1.233047,-0.525792,0.032615
1.230619,-0.524348,0.024407
1.230726,-0.524412,0.016272
1.230791,-0.524451,0.008136
1.230812,-0.524463,0.000000
1.230791,-0.524451,-0.008136
1.232445,-0.525434,-0.016297
1.227181,-0.522305,-0.024334
1.232188,-0.525281,-0.032591
1.231994,-0.525166,-0.040736
1.225679,-0.524162,0.262787
1.227043,-0.524976,0.254675
1.228363,-0.525764,0.246555
1.229641,-0.526526,0.238425
1.230876,-0.527263,0.230286
1.231221,-0.527469,0.221973
1.232369,-0.528154,0.213823
1.223290,-0.522737,0.203831
1.224343,-0.523365,0.195738
1.224503,-0.523460,0.187497
1.225469,-0.524037,0.179396
1.222987,-0.522556,0.170774
1.223865,-0.523080,0.162684
1.224701,-0.523579,0.154587
1.225494,-0.524052,0.146485
1.223683,-0.522971,0.138065
1.224389,-0.523392,0.129971
1.230183,-0.526850,0.122423
1.231662,-0.527733,0.114368
1.232243,-0.528079,0.106217
1.232781,-0.528401,0.098062
1.228136,-0.525628,0.089498
1.228586,-0.525897,0.081373
1.228993,-0.526140,0.073244
1.229358,-0.526358,0.065113
1.230538,-0.527062,0.057022
1.233391,-0.528764,0.048990
1.231053,-0.527369,0.040736
1.230387,-0.526972,0.032566
1.230537,-0.527062,0.024426
1.228927,-0.526101,0.016260
1.228992,-0.526139,0.008130
1.229013,-0.526152,0.000000
1.232427,-0.528189,-0.008155
1.232362,-0.528150,-0.016309
1.233972,-0.529111,-0.024499
1.234680,-0.529534,-0.032689
1.238777,-0.531979,-0.041012
1.226708,-0.527500,0.271692
1.224751,-0.526328,0.262787
1.224428,-0.526134,0.254297
1.227432,-0.527934,0.246555
1.228709,-0.528699,0.238425
1.228252,-0.528425,0.229944
1.219288,-0.523054,0.219829
1.220424,-0.523735,0.211758
1.220669,-0.523882,0.203526
1.221719,-0.524511,0.195445
1.222727,-0.525114,0.187357
1.223691,-0.525693,0.179262
1.224614,-0.526245,0.171159
1.224642,-0.526262,0.162929
1.222922,-0.525232,0.154471
1.223714,-0.525706,0.146375
1.224463,-0.526155,0.138274
1.225169,-0.526578,0.130167
1.226687,-0.527488,0.122147
1.227309,-0.527860,0.114025
1.227888,-0.528207,0.105898
1.228424,-0.528528,0.097767
1.228917,-0.528823,0.089633
1.226799,-0.527554,0.081311
1.227205,-0.527798,0.073189
1.230139,-0.529556,0.065211
1.230461,-0.529749,0.057065
1.230740,-0.529916,0.048917
1.230976,-0.530057,0.040767
1.231169,-0.530173,0.032615
1.231319,-0.530263,0.024463
1.231427,-0.530327,0.016309
1.228918,-0.528824,0.008136
1.228939,-0.528837,0.000000
1.228918,-0.528824,-0.008136
1.228854,-0.528786,-0.016272
1.228747,-0.528721,-0.024407
1.228597,-0.528632,-0.032542
1.229261,-0.529030,-0.040705
1.229026,-0.528889,-0.048843
1.227894,-0.531314,0.263762
1.228418,-0.531629,0.255432
1.230582,-0.532931,0.247470
1.231018,-0.533194,0.239133
1.231409,-0.533430,0.230799
1.221616,-0.527535,0.220489
1.222754,-0.528220,0.212393
1.223849,-0.528879,0.204290
1.221511,-0.527472,0.195592
1.222518,-0.528078,0.187497
1.228577,-0.531725,0.180204
1.224405,-0.529213,0.171288
1.225284,-0.529743,0.163173
1.226120,-0.530246,0.155053
1.223508,-0.528674,0.146485
1.224257,-0.529124,0.138378
1.224963,-0.529549,0.130265
1.225626,-0.529949,0.122147
1.221979,-0.527753,0.113596
1.222555,-0.528100,0.105500
1.221379,-0.527392,0.097252
1.221014,-0.527173,0.089093
1.221462,-0.527442,0.081005
1.221866,-0.527686,0.072913
1.222228,-0.527903,0.064818
1.222548,-0.528096,0.056721
1.224537,-0.529293,0.048696
1.225628,-0.529950,0.040613
1.225820,-0.530065,0.032493
1.226826,-0.530671,0.024389
1.226076,-0.530220,0.016248
1.230424,-0.532837,0.008155
1.225305,-0.529755,0.000000
1.223570,-0.528711,-0.008106
1.223506,-0.528673,-0.016211
1.223400,-0.528609,-0.024315
1.223251,-0.528519,-0.032419
1.227341,-0.530981,-0.040675
1.227962,-0.531354,-0.048843
1.228212,-0.535462,0.264152
1.218657,-0.529677,0.253541
1.221648,-0.531489,0.245823
1.222917,-0.532257,0.237717
1.219087,-0.529938,0.228576
1.220265,-0.530651,0.220489
1.223090,-0.532362,0.212711
1.222495,-0.532001,0.204290
1.223546,-0.532637,0.196179
1.222860,-0.532222,0.187779
1.221282,-0.531267,0.179262
1.222201,-0.531823,0.171159
1.222229,-0.531841,0.162929
1.223063,-0.532345,0.154820
1.224705,-0.533339,0.146816
1.224604,-0.533278,0.138586
1.221904,-0.531644,0.130069
1.219158,-0.529981,0.121596
1.218923,-0.529839,0.113424
1.219497,-0.530186,0.105340
1.220882,-0.531025,0.097326
1.221372,-0.531321,0.089228
1.221819,-0.531592,0.081127
1.224786,-0.533388,0.073189
1.223440,-0.532573,0.064966
1.223760,-0.532767,0.056850
1.224892,-0.533452,0.048770
1.225981,-0.534112,0.040675
1.225318,-0.533710,0.032517
1.225468,-0.533801,0.024389
1.223008,-0.532312,0.016223
1.223072,-0.532351,0.008112
1.220527,-0.530810,0.000000
1.223072,-0.532351,-0.008112
1.223008,-0.532312,-0.016223
1.222902,-0.532247,-0.024334
1.222753,-0.532157,-0.032444
1.222561,-0.532041,-0.040552
1.226601,-0.534487,-0.048843
1.229742,-0.536389,-0.057151
1.217463,-0.531742,0.270285
1.218859,-0.532591,0.262201
1.217695,-0.531883,0.253541
1.219004,-0.532678,0.245456
1.216064,-0.530892,0.236478
1.216441,-0.531121,0.228234
1.217617,-0.531835,0.220159
1.218750,-0.532524,0.212076
1.218152,-0.532161,0.203679
1.219198,-0.532797,0.195592
1.221049,-0.533922,0.187638
1.222011,-0.534507,0.179531
1.217847,-0.531975,0.170645
1.223809,-0.535599,0.163296
1.219551,-0.533011,0.154471
1.220340,-0.533491,0.146375
1.222786,-0.534978,0.138482
1.223491,-0.535406,0.130363
1.224153,-0.535809,0.122239
1.224773,-0.536185,0.114110
1.221942,-0.534465,0.105659
1.221623,-0.534271,0.097473
1.222113,-0.534568,0.089363
1.223413,-0.535359,0.081311
1.221258,-0.534049,0.073023
1.221620,-0.534269,0.064917
1.223647,-0.535501,0.056893
1.221362,-0.534112,0.048659
1.219887,-0.533216,0.040491
1.218370,-0.532293,0.032345
1.220227,-0.533422,0.024297
1.220333,-0.533487,0.016198
1.220397,-0.533526,0.008099
1.222982,-0.535097,0.000000
1.223815,-0.535603,-0.008124
1.223751,-0.535564,-0.016248
1.223645,-0.535500,-0.024371
1.223496,-0.535409,-0.032493
1.223304,-0.535293,-0.040613
1.223070,-0.535150,-0.048733
1.222793,-0.534982,-0.056850
1.223941,-0.538726,0.272095
1.225345,-0.539583,0.263957
1.226706,-0.540414,0.255810
1.214599,-0.533022,0.244724
1.215860,-0.533791,0.236655
1.220441,-0.536589,0.229260
1.221621,-0.537309,0.221148
1.221072,-0.536974,0.212711
1.222165,-0.537641,0.204595
1.223215,-0.538282,0.196472
1.214083,-0.532707,0.186653
1.215039,-0.533291,0.178589
1.215953,-0.533849,0.170517
1.216825,-0.534381,0.162439
1.217655,-0.534887,0.154355
1.216745,-0.534332,0.146044
1.217489,-0.534786,0.137961
1.218190,-0.535214,0.129873
1.218849,-0.535617,0.121779
1.219466,-0.535993,0.113681
1.222592,-0.537902,0.105818
1.223125,-0.538227,0.097694
1.222764,-0.538007,0.089498
1.224063,-0.538800,0.081434
1.223616,-0.538527,0.073244
1.223979,-0.538748,0.065113
1.224298,-0.538944,0.056979
1.227987,-0.541196,0.048990
1.223957,-0.538735,0.040675
1.224148,-0.538852,0.032542
1.223444,-0.538422,0.024389
1.223551,-0.538487,0.016260
1.222761,-0.538005,0.008124
1.221075,-0.536976,0.000000
1.222761,-0.538005,-0.008124
1.222697,-0.537966,-0.016248
1.221738,-0.537380,-0.024352
1.221589,-0.537289,-0.032468
1.221397,-0.537173,-0.040583
1.221164,-0.537030,-0.048696
1.227709,-0.541026,-0.057151
1.229093,-0.541871,-0.065407
1.218195,-0.537984,0.279393
1.214624,-0.535795,0.270084
1.214344,-0.535623,0.261616
1.215691,-0.536449,0.253541
1.216158,-0.536735,0.245273
1.215742,-0.536480,0.236832
1.216959,-0.537227,0.228747
1.218135,-0.537947,0.220654
1.219268,-0.538642,0.212552
1.221201,-0.539827,0.204595
1.222250,-0.540470,0.196472
1.226633,-0.543157,0.188904
1.224221,-0.541678,0.180204
1.225142,-0.542243,0.172059
1.218406,-0.538113,0.162806
1.221776,-0.540179,0.155053
1.220872,-0.539625,0.146706
1.218226,-0.538003,0.138169
1.222322,-0.540514,0.130461
1.222983,-0.540919,0.122331
1.223601,-0.541298,0.114196
1.225027,-0.542172,0.106137
1.225561,-0.542500,0.097988
1.225202,-0.542279,0.089768
1.225650,-0.542554,0.081618
1.225205,-0.542281,0.073410
1.222161,-0.540415,0.065064
1.222480,-0.540611,0.056936
1.222757,-0.540780,0.048806
1.218730,-0.538312,0.040521
1.223182,-0.541041,0.032542
1.222479,-0.540610,0.024389
1.224290,-0.541720,0.016284
1.222649,-0.540714,0.008130
1.222670,-0.540727,0.000000
1.220091,-0.539146,-0.008112
1.220028,-0.539107,-0.016223
1.217365,-0.537475,-0.024278
1.217216,-0.537384,-0.032370
1.217026,-0.537267,-0.040460
1.216793,-0.537125,-0.048549
1.222480,-0.540611,-0.056936
1.225567,-0.542503,-0.065260
1.214742,-0.538597,0.278772
1.215344,-0.538967,0.270486
1.215066,-0.538796,0.262006
1.212232,-0.537052,0.252974
1.212696,-0.537338,0.244724
1.210601,-0.536048,0.235947
1.211813,-0.536794,0.227892
1.211303,-0.536480,0.219499
1.211588,-0.536656,0.211281
1.212671,-0.537322,0.203220
1.213712,-0.537963,0.195152
1.214710,-0.538577,0.187075
1.213979,-0.538127,0.178723
1.214892,-0.538689,0.170645
1.212381,-0.537144,0.162072
1.215745,-0.539214,0.154355
1.216530,-0.539698,0.146265
1.218968,-0.541198,0.138378
1.217974,-0.540586,0.130069
1.218633,-0.540992,0.121963
1.215855,-0.539282,0.113510
1.213031,-0.537544,0.105101
1.213560,-0.537869,0.097032
1.217444,-0.540260,0.089228
1.217889,-0.540534,0.081127
1.218292,-0.540782,0.073023
1.218652,-0.541004,0.064917
1.218971,-0.541199,0.056807
1.219246,-0.541369,0.048696
1.214372,-0.538369,0.040399
1.219670,-0.541630,0.032468
1.214710,-0.538577,0.024242
1.219925,-0.541787,0.016235
1.214879,-0.538681,0.008081
1.219158,-0.541315,0.000000
1.217434,-0.540253,-0.008099
1.217370,-0.540214,-0.016198
1.217264,-0.540149,-0.024297
1.218819,-0.541106,-0.032444
1.216926,-0.539941,-0.040491
1.219246,-0.541369,-0.048696
1.221523,-0.542770,-0.056936
1.221204,-0.542574,-0.065064
1.215441,-0.541798,0.279186
1.211044,-0.539081,0.269681
1.211597,-0.539422,0.261421
1.211269,-0.539220,0.252974
1.210896,-0.538989,0.244541
1.212152,-0.539765,0.236478
1.213365,-0.540515,0.228405
1.212858,-0.540202,0.219994
1.211466,-0.539341,0.211440
1.212548,-0.540010,0.203373
1.212747,-0.540133,0.195152
1.211218,-0.539188,0.186653
1.212171,-0.539777,0.178589
1.215613,-0.541904,0.170902
1.216484,-0.542442,0.162806
1.220693,-0.545043,0.155169
1.221482,-0.545530,0.147036
1.218843,-0.543900,0.138482
1.219545,-0.544334,0.130363
1.220204,-0.544741,0.122239
1.219126,-0.544075,0.113939
1.221396,-0.545477,0.105978
1.219382,-0.544233,0.097620
1.214778,-0.541388,0.089093
1.213524,-0.540613,0.080882
1.215624,-0.541911,0.072913
1.215983,-0.542133,0.064818
1.218000,-0.543379,0.056807
1.220826,-0.545125,0.048806
1.221060,-0.545270,0.040675
1.218699,-0.543811,0.032468
1.217997,-0.543377,0.024334
1.213850,-0.540815,0.016162
1.213913,-0.540854,0.008081
1.218188,-0.543495,0.000000
1.218166,-0.543482,-0.008112
1.218103,-0.543443,-0.016223
1.217997,-0.543377,-0.024334
1.217849,-0.543286,-0.032444
1.217659,-0.543168,-0.040552
1.217426,-0.543024,-0.048659
1.227349,-0.549156,-0.057280
1.227879,-0.549483,-0.065505
1.215716,-0.545931,0.279600
1.214656,-0.545273,0.270888
1.216047,-0.546137,0.262787
1.209889,-0.542310,0.252974
1.218702,-0.547787,0.246555
1.213655,-0.544650,0.228747
1.211475,-0.543296,0.219994
1.211762,-0.543474,0.211758
1.212845,-0.544147,0.203679
1.213045,-0.544271,0.195445
1.214042,-0.544891,0.187357
1.209106,-0.541824,0.178319
1.215911,-0.546052,0.171159
1.216782,-0.546594,0.163051
1.215923,-0.546060,0.154704
1.216708,-0.546548,0.146596
1.217451,-0.547010,0.138482
1.218152,-0.547445,0.130363
1.218810,-0.547854,0.122239
1.218580,-0.547711,0.114025
1.219153,-0.548067,0.105898
1.219683,-0.548397,0.097767
1.220172,-0.548700,0.089633
1.213836,-0.544763,0.081005
1.221021,-0.549228,0.073354
1.213747,-0.544708,0.064769
1.214064,-0.544904,0.056679
1.214338,-0.545075,0.048586
1.214570,-0.545219,0.040491
1.213062,-0.544282,0.032345
1.213209,-0.544373,0.024260
1.215013,-0.545494,0.016198
1.213378,-0.544478,0.008087
1.218495,-0.547658,0.000000
1.218474,-0.547645,-0.008124
1.218410,-0.547606,-0.016248
1.218305,-0.547540,-0.024371
1.220704,-0.549031,-0.032566
1.220513,-0.548912,-0.040705
1.220279,-0.548767,-0.048843
1.220004,-0.548596,-0.056979
1.219686,-0.548398,-0.065113
1.214822,-0.547920,0.279600
1.208776,-0.544149,0.269681
1.210159,-0.545012,0.261616
1.211500,-0.545848,0.253541
1.212799,-0.546658,0.245456
1.211550,-0.545880,0.236832
1.216106,-0.548721,0.229431
1.209748,-0.544755,0.219829
1.208358,-0.543889,0.211281
1.208599,-0.544039,0.203067
1.209635,-0.544685,0.195005
1.208109,-0.543733,0.186513
1.211581,-0.545899,0.178858
1.212491,-0.546467,0.170774
1.217570,-0.549634,0.163296
1.218399,-0.550151,0.155169
1.219186,-0.550642,0.147036
1.219930,-0.551106,0.138898
1.217254,-0.549437,0.130363
1.217912,-0.549847,0.122239
1.218527,-0.550231,0.114110
1.215717,-0.548478,0.105659
1.216246,-0.548808,0.097547
1.216733,-0.549112,0.089431
1.217177,-0.549389,0.081311
1.215038,-0.548055,0.073023
1.212007,-0.546164,0.064720
1.215714,-0.548476,0.056807
1.212597,-0.546532,0.048549
1.212828,-0.546677,0.040460
1.213018,-0.546795,0.032370
1.211469,-0.545829,0.024242
1.211574,-0.545894,0.016162
1.214182,-0.547521,0.008099
1.214203,-0.547534,0.000000
1.214182,-0.547521,-0.008099
1.218361,-0.550128,-0.016260
1.214014,-0.547416,-0.024297
1.217259,-0.549440,-0.032493
1.217069,-0.549322,-0.040613
1.215140,-0.548119,-0.048659
1.214866,-0.547948,-0.056764
1.216244,-0.548807,-0.064966
1.211232,-0.548799,0.278979
1.210171,-0.548134,0.270285
1.207400,-0.546398,0.261226
1.207073,-0.546193,0.252785
1.205034,-0.544916,0.243992
1.206282,-0.545698,0.235947
1.207488,-0.546453,0.227892
1.208652,-0.547182,0.219829
1.212284,-0.549458,0.212234
1.213367,-0.550136,0.204137
1.214407,-0.550788,0.196032
1.207854,-0.546683,0.186653
1.206285,-0.545699,0.178185
1.207190,-0.546267,0.170132
1.208895,-0.547335,0.162194
1.209717,-0.547850,0.154122
1.212182,-0.549394,0.146265
1.212922,-0.549857,0.138169
1.211932,-0.549238,0.129873
1.211743,-0.549119,0.121687
1.211510,-0.548973,0.113510
1.212079,-0.549330,0.105420
1.212607,-0.549660,0.097326
1.213091,-0.549964,0.089228
1.212689,-0.549711,0.081066
1.214781,-0.551023,0.073079
1.215140,-0.551247,0.064966
1.213764,-0.550385,0.056764
1.210650,-0.548434,0.048512
1.214270,-0.550702,0.040552
1.207682,-0.546575,0.032247
1.207829,-0.546667,0.024186
1.211323,-0.548856,0.016174
1.214776,-0.551019,0.008112
1.211407,-0.548909,0.000000
1.213081,-0.549957,-0.008099
1.213018,-0.549918,-0.016198
1.212913,-0.549852,-0.024297
1.212765,-0.549759,-0.032394
1.213423,-0.550171,-0.040521
1.213191,-0.550026,-0.048622
1.217150,-0.552507,-0.056936
1.221911,-0.555490,-0.065358
1.209201,-0.550272,0.270285
1.210584,-0.551142,0.262201
1.211925,-0.551985,0.254108
1.207398,-0.549138,0.244724
1.208648,-0.549924,0.236655
1.207354,-0.549111,0.228063
1.208518,-0.549843,0.219994
1.205461,-0.547920,0.211122
1.204027,-0.547018,0.202609
1.205058,-0.547667,0.194565
1.217781,-0.555669,0.188482
1.212867,-0.552578,0.179396
1.215457,-0.554207,0.171545
1.216327,-0.554754,0.163418
1.216314,-0.554746,0.155169
1.216257,-0.554710,0.146926
1.211948,-0.552000,0.138169
1.211802,-0.551908,0.129971
1.210771,-0.551259,0.121687
1.209695,-0.550583,0.113424
1.208575,-0.549879,0.105181
1.209101,-0.550209,0.097105
1.207050,-0.548919,0.088824
1.210026,-0.550791,0.080943
1.210425,-0.551042,0.072858
1.209937,-0.550735,0.064720
1.206024,-0.548274,0.056421
1.207988,-0.549509,0.048438
1.208218,-0.549654,0.040368
1.208407,-0.549773,0.032296
1.208554,-0.549865,0.024223
1.208658,-0.549931,0.016149
1.212954,-0.552632,0.008106
1.212975,-0.552646,0.000000
1.212954,-0.552632,-0.008106
1.217123,-0.555255,-0.016272
1.217017,-0.555188,-0.024407
1.212638,-0.552434,-0.032419
1.216679,-0.554976,-0.040675
1.216447,-0.554829,-0.048806
1.219555,-0.556784,-0.057108
1.209871,-0.553480,0.270687
1.209596,-0.553307,0.262201
1.208444,-0.552580,0.253541
1.207245,-0.551822,0.244907
1.208495,-0.552611,0.236832
1.204704,-0.550218,0.227721
1.209200,-0.553057,0.220324
1.206983,-0.551657,0.211599
1.208060,-0.552337,0.203526
1.209095,-0.552990,0.195445
1.210088,-0.553617,0.187357
1.210201,-0.553689,0.179127
1.210271,-0.553733,0.170902
1.211137,-0.554280,0.162806
1.211960,-0.554800,0.154704
1.208540,-0.552640,0.146044
1.204231,-0.549919,0.137336
1.204923,-0.550356,0.129285
1.205573,-0.550766,0.121228
1.206181,-0.551150,0.113167
1.207590,-0.552040,0.105181
1.208958,-0.552904,0.097179
1.210285,-0.553742,0.089161
1.216634,-0.557751,0.081495
1.217035,-0.558004,0.073354
1.217395,-0.558231,0.065211
1.217712,-0.558432,0.057065
1.207003,-0.551669,0.048438
1.205543,-0.550747,0.040307
1.207421,-0.551934,0.032296
1.210104,-0.553628,0.024278
1.210209,-0.553694,0.016186
1.211118,-0.554268,0.008099
1.211139,-0.554281,0.000000
1.211118,-0.554268,-0.008099
1.214436,-0.556363,-0.016248
1.212640,-0.555229,-0.024334
1.214184,-0.556204,-0.032493
1.213994,-0.556084,-0.040613
1.213762,-0.555938,-0.048733
1.213488,-0.555765,-0.056850
1.211930,-0.557544,0.262982
1.200831,-0.550508,0.252029
1.207929,-0.555007,0.245273
1.203360,-0.552111,0.235947
1.202898,-0.551818,0.227550
1.205722,-0.553609,0.219829
1.207674,-0.554846,0.211917
1.208752,-0.555529,0.203831
1.209787,-0.556185,0.195738
1.210780,-0.556815,0.187638
1.211732,-0.557418,0.179531
1.208453,-0.555340,0.170774
1.207641,-0.554825,0.162439
1.208462,-0.555345,0.154355
1.209240,-0.555839,0.146265
1.208297,-0.555241,0.137961
1.207310,-0.554616,0.129677
1.205438,-0.553429,0.121320
1.201839,-0.551147,0.112823
1.202403,-0.551504,0.104782
1.202925,-0.551835,0.096737
1.203405,-0.552140,0.088689
1.204687,-0.552953,0.080698
1.206771,-0.554274,0.072747
1.213032,-0.558243,0.065015
1.214192,-0.558978,0.056936
1.214466,-0.559152,0.048806
1.213854,-0.558764,0.040644
1.206444,-0.554066,0.032296
1.205746,-0.553624,0.024205
1.205851,-0.553690,0.016137
1.205913,-0.553730,0.008069
1.206779,-0.554279,0.000000
1.212670,-0.558013,-0.008118
1.212607,-0.557973,-0.016235
1.209124,-0.555765,-0.024278
1.212354,-0.557813,-0.032468
1.212165,-0.557693,-0.040583
1.213622,-0.558617,-0.048770
1.216723,-0.560583,-0.057065
1.204701,-0.556971,0.261616
1.206034,-0.557821,0.253541
1.205667,-0.557587,0.245090
1.203595,-0.556265,0.236301
1.204796,-0.557032,0.228234
1.205956,-0.557771,0.220159
1.205409,-0.557423,0.211758
1.206484,-0.558108,0.203679
1.201678,-0.555044,0.194565
1.203499,-0.556205,0.186653
1.203608,-0.556274,0.178454
1.202838,-0.555783,0.170132
1.202861,-0.555798,0.161949
1.201166,-0.554717,0.153541
1.201939,-0.555210,0.145493
1.202671,-0.555677,0.137441
1.203361,-0.556117,0.129383
1.204010,-0.556530,0.121320
1.204617,-0.556917,0.113252
1.205182,-0.557277,0.105181
1.205705,-0.557611,0.097105
1.206187,-0.557918,0.089026
1.203260,-0.556052,0.080698
1.203656,-0.556305,0.072637
1.204854,-0.557068,0.064622
1.205167,-0.557268,0.056550
1.208809,-0.559590,0.048622
1.209040,-0.559737,0.040521
1.209229,-0.559857,0.032419
1.209375,-0.559951,0.024315
1.207794,-0.558943,0.016186
1.207857,-0.558983,0.008093
1.207878,-0.558996,0.000000
1.207013,-0.558445,-0.008087
1.205264,-0.557330,-0.016149
1.205160,-0.557264,-0.024223
1.206700,-0.558245,-0.032345
1.207354,-0.558662,-0.040460
1.210495,-0.560665,-0.048696
1.211064,-0.561028,-0.056850
1.204639,-0.559418,0.261811
1.203490,-0.558682,0.253163
1.202293,-0.557917,0.244541
1.206023,-0.560303,0.237009
1.204738,-0.559481,0.228405
1.205897,-0.560223,0.220324
1.201193,-0.557213,0.211122
1.202264,-0.557898,0.203067
1.203293,-0.558556,0.195005
1.204280,-0.559188,0.186935
1.203556,-0.558724,0.178589
1.201116,-0.557164,0.170003
1.201974,-0.557713,0.161949
1.206137,-0.560376,0.154355
1.206914,-0.560873,0.146265
1.204298,-0.559199,0.137753
1.204989,-0.559642,0.129677
1.205638,-0.560057,0.121596
1.204567,-0.559372,0.113338
1.204293,-0.559196,0.105181
1.204815,-0.559530,0.097105
1.205296,-0.559838,0.089026
1.206576,-0.560657,0.081005
1.205292,-0.559835,0.072803
1.205647,-0.560063,0.064720
1.207644,-0.561340,0.056721
1.207916,-0.561515,0.048622
1.206463,-0.560585,0.040460
1.206651,-0.560705,0.032370
1.206798,-0.560799,0.024278
1.205218,-0.559788,0.016162
1.205280,-0.559828,0.008081
1.204459,-0.559302,0.000000
1.204438,-0.559289,-0.008075
1.206902,-0.560866,-0.016186
1.206798,-0.560799,-0.024278
1.204125,-0.559089,-0.032296
1.203095,-0.558430,-0.040337
1.202866,-0.558283,-0.048401
1.202595,-0.558110,-0.056464
1.203204,-0.561601,0.253352
1.203664,-0.561897,0.245090
1.203253,-0.561632,0.236655
1.200309,-0.559741,0.227721
1.199804,-0.559416,0.219334
1.200915,-0.560131,0.211281
1.201985,-0.560818,0.203220
1.203014,-0.561479,0.195152
1.204000,-0.562113,0.187075
1.204945,-0.562720,0.178992
1.205848,-0.563300,0.170902
1.200030,-0.559561,0.161827
1.201680,-0.560622,0.153890
1.202453,-0.561119,0.145824
1.203185,-0.561589,0.137753
1.201364,-0.560419,0.129383
1.204524,-0.562449,0.121596
1.205131,-0.562839,0.113510
1.209050,-0.565358,0.105739
1.209575,-0.565695,0.097620
1.210058,-0.566006,0.089498
1.207140,-0.564131,0.081127
1.204178,-0.562227,0.072803
1.202012,-0.560835,0.064573
1.202325,-0.561036,0.056507
1.202596,-0.561210,0.048438
1.201984,-0.560817,0.040337
1.203013,-0.561478,0.032296
1.207364,-0.564274,0.024315
1.203263,-0.561639,0.016149
1.201643,-0.560598,0.008063
1.207552,-0.564395,0.000000
1.204166,-0.562220,-0.008081
1.201580,-0.560558,-0.016125
1.204000,-0.562112,-0.024242
1.203854,-0.562019,-0.032321
1.203666,-0.561898,-0.040399
1.209321,-0.565532,-0.048733
1.201755,-0.564697,0.253352
1.193131,-0.559124,0.243077
1.194363,-0.559920,0.235062
1.197209,-0.561759,0.227379
1.196703,-0.561433,0.219005
1.197811,-0.562149,0.210964
1.198048,-0.562301,0.202762
1.199072,-0.562963,0.194711
1.197560,-0.561986,0.186232
1.198499,-0.562593,0.178185
1.201895,-0.564788,0.170517
1.203587,-0.565881,0.162561
1.204403,-0.566409,0.154471
1.205179,-0.566910,0.146375
1.205077,-0.566844,0.138169
1.203260,-0.565670,0.129775
1.203072,-0.565548,0.121596
1.203678,-0.565940,0.113510
1.203405,-0.565763,0.105340
1.203927,-0.566101,0.097252
1.204407,-0.566411,0.089161
1.198139,-0.562361,0.080575
1.198534,-0.562616,0.072527
1.202242,-0.565012,0.064671
1.202555,-0.565214,0.056593
1.201986,-0.564847,0.048475
1.203055,-0.565537,0.040429
1.203242,-0.565659,0.032345
1.204228,-0.566295,0.024278
1.204332,-0.566363,0.016186
1.205235,-0.566946,0.008099
1.206095,-0.567502,0.000000
1.204395,-0.566403,-0.008093
1.202653,-0.565277,-0.016162
1.203388,-0.565753,-0.024260
1.203242,-0.565659,-0.032345
1.203055,-0.565537,-0.040429
1.206125,-0.570407,0.246189
1.200766,-0.566930,0.236655
1.200310,-0.566634,0.228234
1.197327,-0.564698,0.219334
1.198435,-0.565418,0.211281
1.197015,-0.564496,0.202762
1.194719,-0.563006,0.194124
1.195697,-0.563641,0.186091
1.196635,-0.564249,0.178050
1.198362,-0.565370,0.170132
1.199217,-0.565925,0.162072
1.200031,-0.566453,0.154006
1.200803,-0.566954,0.145934
1.201533,-0.567427,0.137857
1.197213,-0.564624,0.129187
1.197857,-0.565042,0.121136
1.203475,-0.568687,0.113596
1.199021,-0.565798,0.105021
1.201214,-0.567221,0.097105
1.205041,-0.569704,0.089296
1.202968,-0.568358,0.081005
1.203364,-0.568615,0.072913
1.203719,-0.568846,0.064818
1.204031,-0.569048,0.056721
1.204302,-0.569224,0.048622
1.203693,-0.568829,0.040491
1.203881,-0.568951,0.032394
1.203188,-0.568501,0.024278
1.203292,-0.568569,0.016186
1.203355,-0.568609,0.008093
1.201698,-0.567534,0.000000
1.201677,-0.567521,-0.008081
1.201615,-0.567480,-0.016162
1.201511,-0.567413,-0.024242
1.199688,-0.566230,-0.032272
1.201178,-0.567197,-0.040399
1.200949,-0.567049,-0.048475
1.203342,-0.571727,0.245823
1.200462,-0.569850,0.236832
1.200834,-0.570092,0.228576
1.199509,-0.569228,0.219994
1.200619,-0.569952,0.211917
1.199204,-0.569030,0.203373
1.200229,-0.569697,0.195298
1.194576,-0.566014,0.186091
1.195512,-0.566624,0.178050
1.196407,-0.567207,0.170003
1.197260,-0.567763,0.161949
1.198072,-0.568292,0.153890
1.201340,-0.570422,0.146155
1.202071,-0.570898,0.138065
1.202760,-0.571347,0.129971
1.200070,-0.569594,0.121504
1.199839,-0.569443,0.113338
1.197895,-0.568177,0.105021
1.198415,-0.568515,0.096958
1.200564,-0.569916,0.089026
1.201001,-0.570201,0.080943
1.201396,-0.570458,0.072858
1.201750,-0.570689,0.064769
1.205410,-0.573074,0.056850
1.201496,-0.570523,0.048549
1.205911,-0.573401,0.040613
1.201912,-0.570794,0.032370
1.202895,-0.571435,0.024297
1.202161,-0.570957,0.016186
1.202224,-0.570997,0.008093
1.202244,-0.571011,0.000000
1.203061,-0.571543,-0.008099
1.202161,-0.570957,-0.016186
1.197031,-0.567614,-0.024168
1.196886,-0.567519,-0.032223
1.196700,-0.567398,-0.040276
1.196472,-0.567249,-0.048328
1.206866,-0.576820,0.238425
1.194053,-0.568437,0.227379
1.192724,-0.567567,0.218840
1.192174,-0.567208,0.210487
1.193234,-0.567902,0.202456
1.195909,-0.569651,0.194711
1.195231,-0.569208,0.186372
1.198655,-0.571448,0.178723
1.199552,-0.572035,0.170645
1.195424,-0.569334,0.161827
1.196234,-0.569864,0.153773
1.194508,-0.568735,0.145383
1.195234,-0.569210,0.137336
1.195918,-0.569658,0.129285
1.199061,-0.571714,0.121504
1.202166,-0.573745,0.113681
1.202729,-0.574113,0.105579
1.205754,-0.576092,0.097694
1.206235,-0.576406,0.089566
1.197486,-0.570683,0.080759
1.197880,-0.570941,0.072692
1.199904,-0.572265,0.064720
1.200215,-0.572469,0.056636
1.200485,-0.572645,0.048549
1.202387,-0.573889,0.040521
1.200901,-0.572917,0.032370
1.199373,-0.571918,0.024242
1.198640,-0.571438,0.016149
1.197865,-0.570931,0.008069
1.197886,-0.570945,0.000000
1.197865,-0.570931,-0.008069
1.197803,-0.570891,-0.016137
1.197700,-0.570823,-0.024205
1.199228,-0.571823,-0.032321
1.199878,-0.572248,-0.040429
1.199649,-0.572098,-0.048512
1.194315,-0.571414,0.235947
1.193034,-0.570572,0.227379
1.192531,-0.570242,0.219005
1.191983,-0.569882,0.210646
1.193043,-0.570578,0.202609
1.194061,-0.571247,0.194565
1.194211,-0.571345,0.186372
1.195146,-0.571959,0.178319
1.196040,-0.572546,0.170260
1.194404,-0.571472,0.161827
1.194383,-0.571458,0.153657
1.194319,-0.571416,0.145493
1.193382,-0.570801,0.137232
1.194066,-0.571250,0.129187
1.196372,-0.572765,0.121320
1.197806,-0.573707,0.113338
1.198367,-0.574075,0.105260
1.198886,-0.574416,0.097179
1.199364,-0.574729,0.089093
1.198966,-0.574468,0.080943
1.198526,-0.574179,0.072803
1.199713,-0.574959,0.064769
1.200860,-0.575712,0.056721
1.200294,-0.575341,0.048586
1.199687,-0.574942,0.040460
1.197367,-0.573418,0.032296
1.197512,-0.573513,0.024223
1.197616,-0.573581,0.016149
1.197678,-0.573622,0.008075
1.198534,-0.574185,0.000000
1.198514,-0.574171,-0.008081
1.198452,-0.574130,-0.016162
1.194169,-0.571318,-0.024150
1.194025,-0.571223,-0.032198
1.193839,-0.571101,-0.040245
1.198221,-0.576800,0.237009
1.190366,-0.571621,0.227037
1.191509,-0.572374,0.219005
1.192610,-0.573100,0.210964
1.193670,-0.573799,0.202915
1.196341,-0.575560,0.195152
1.197320,-0.576205,0.187075
1.198257,-0.576824,0.178992
1.198325,-0.576869,0.170774
1.199180,-0.577432,0.162684
1.195846,-0.575234,0.154006
1.196614,-0.575741,0.145934
1.191529,-0.572388,0.137128
1.189718,-0.571194,0.128795
1.190357,-0.571615,0.120768
1.193451,-0.573655,0.112995
1.191513,-0.572377,0.104703
1.192028,-0.572717,0.096664
1.197501,-0.576325,0.089026
1.195436,-0.574964,0.080759
1.193328,-0.573574,0.072527
1.195347,-0.574905,0.064573
1.196491,-0.575659,0.056550
1.195926,-0.575287,0.048438
1.196153,-0.575437,0.040368
1.196340,-0.575559,0.032296
1.196484,-0.575655,0.024223
1.196588,-0.575723,0.016149
1.196650,-0.575764,0.008075
1.199175,-0.577429,0.000000
1.199989,-0.577966,-0.008099
1.199092,-0.577374,-0.016186
1.193980,-0.574004,-0.024168
1.198843,-0.577210,-0.032370
1.199491,-0.577637,-0.040491
1.189354,-0.573724,0.227037
1.190495,-0.574479,0.219005
1.191595,-0.575207,0.210964
1.192654,-0.575908,0.202915
1.187898,-0.572760,0.193831
1.188869,-0.573403,0.185810
1.189799,-0.574018,0.177781
1.190688,-0.574607,0.169746
1.191536,-0.575168,0.161704
1.192343,-0.575702,0.153657
1.193938,-0.576757,0.145714
1.194662,-0.577237,0.137649
1.195346,-0.577689,0.129579
1.195988,-0.578115,0.121504
1.195759,-0.577962,0.113338
1.193824,-0.576682,0.105021
1.194341,-0.577024,0.096958
1.194816,-0.577339,0.088891
1.195251,-0.577626,0.080821
1.197309,-0.578988,0.072858
1.197661,-0.579221,0.064769
1.197138,-0.578876,0.056636
1.194908,-0.577399,0.048438
1.197635,-0.579204,0.040460
1.195321,-0.577673,0.032296
1.192130,-0.575561,0.024150
1.192233,-0.575629,0.016100
1.192295,-0.575670,0.008050
1.190648,-0.574580,0.000000
1.192295,-0.575670,-0.008050
1.192233,-0.575629,-0.016100
1.192130,-0.575561,-0.024150
1.196988,-0.578776,-0.032345
1.205137,-0.584169,-0.040736
1.191987,-0.579487,0.227892
1.189025,-0.577516,0.219005
1.190123,-0.578247,0.210964
1.191180,-0.578950,0.202915
1.192196,-0.579626,0.194858
1.193995,-0.580824,0.186935
1.194929,-0.581445,0.178858
1.193346,-0.580391,0.170388
1.195848,-0.582057,0.162561
1.196658,-0.582595,0.154471
1.195771,-0.582006,0.146155
1.195669,-0.581938,0.137961
1.196353,-0.582393,0.129873
1.189535,-0.577855,0.120952
1.190132,-0.578253,0.112909
1.190689,-0.578623,0.104862
1.194525,-0.581176,0.097105
1.195000,-0.581492,0.089026
1.195434,-0.581781,0.080943
1.195827,-0.582043,0.072858
1.196178,-0.582277,0.064769
1.196489,-0.582483,0.056679
1.196757,-0.582662,0.048586
1.196985,-0.582813,0.040491
1.197171,-0.582937,0.032394
1.197316,-0.583034,0.024297
1.193257,-0.580332,0.016137
1.190822,-0.578712,0.008050
1.190842,-0.578725,0.000000
1.191654,-0.579266,-0.008056
1.191592,-0.579224,-0.016113
1.194819,-0.581372,-0.024242
1.196339,-0.582383,-0.032370
1.197817,-0.583367,-0.040521
1.192974,-0.582799,0.219994
1.191613,-0.581890,0.211440
1.191028,-0.581499,0.203067
1.192043,-0.582178,0.195005
1.190548,-0.581179,0.186513
1.191479,-0.581801,0.178454
1.192369,-0.582395,0.170388
1.193218,-0.582962,0.162317
1.193199,-0.582950,0.154122
1.194792,-0.584013,0.146155
1.194690,-0.583945,0.137961
1.191235,-0.581638,0.129383
1.191047,-0.581512,0.121228
1.191645,-0.581911,0.113167
1.188886,-0.580069,0.104782
1.189400,-0.580412,0.096737
1.193192,-0.582945,0.088959
1.193625,-0.583234,0.080882
1.196508,-0.585160,0.072968
1.196860,-0.585395,0.064867
1.194678,-0.583937,0.056636
1.193284,-0.583006,0.048475
1.193511,-0.583158,0.040399
1.193696,-0.583282,0.032321
1.189684,-0.580601,0.024150
1.188123,-0.579559,0.016076
1.194005,-0.583488,0.008081
1.192363,-0.582391,0.000000
1.192342,-0.582377,-0.008069
1.192281,-0.582336,-0.016137
1.196335,-0.585044,-0.024297
1.199515,-0.587169,-0.032493
1.188538,-0.582969,0.219334
1.189636,-0.583705,0.211281
1.187409,-0.582211,0.202609
1.190885,-0.584543,0.195005
1.190214,-0.584093,0.186653
1.191144,-0.584717,0.178589
1.192034,-0.585314,0.170517
1.192882,-0.585883,0.162439
