1.202217,-0.748201,0.094961
1.203423,-0.749181,0.086401
1.203814,-0.749499,0.077770
1.204164,-0.749783,0.069136
1.204472,-0.750034,0.060500
1.213268,-0.757187,0.052266
1.213496,-0.757373,0.043558
1.197873,-0.748175,0.243108
1.198244,-0.748478,0.234342
1.195514,-0.746249,0.224943
1.200390,-0.750230,0.217125
1.197571,-0.747928,0.207770
1.197004,-0.747465,0.198891
1.197929,-0.748220,0.190297
1.198045,-0.748315,0.181568
1.198118,-0.748375,0.172844
1.198920,-0.749029,0.164242
1.200450,-0.750278,0.155744
1.193465,-0.744576,0.146083
1.197223,-0.747644,0.137910
1.197858,-0.748162,0.129316
1.198452,-0.748648,0.120717
1.199005,-0.749099,0.112113
1.199518,-0.749518,0.103505
1.197671,-0.748010,0.094691
1.213564,-0.760985,0.087321
1.206997,-0.755624,0.078101
1.200384,-0.750225,0.068989
1.200692,-0.750476,0.060371
1.207151,-0.755750,0.052045
1.207378,-0.755935,0.043374
1.207563,-0.756086,0.034701
1.201753,-0.754872,0.244305
1.200603,-0.753929,0.235166
1.198644,-0.752324,0.225896
1.193581,-0.748174,0.216055
1.194586,-0.748998,0.207477
1.196316,-0.750416,0.199031
1.197240,-0.751173,0.190432
1.198123,-0.751897,0.181825
1.198966,-0.752587,0.173211
1.195927,-0.750096,0.164009
1.196684,-0.750718,0.155413
1.195863,-0.750044,0.146603
1.196539,-0.750598,0.138008
1.193322,-0.747962,0.128948
1.193914,-0.748447,0.120374
1.194465,-0.748898,0.111794
1.194975,-0.749316,0.103211
1.194673,-0.749069,0.094556
1.197417,-0.751318,0.086156
1.197033,-0.751003,0.077494
1.195836,-0.750022,0.068793
1.196142,-0.750273,0.060199
1.194861,-0.749223,0.051530
1.195085,-0.749407,0.042945
1.195269,-0.749557,0.034358
1.202567,-0.759082,0.244817
1.197614,-0.755006,0.234836
1.198706,-0.755904,0.226214
1.194415,-0.752374,0.216514
1.195421,-0.753201,0.207917
1.201334,-0.758067,0.173823
1.192934,-0.751155,0.163777
1.193690,-0.751777,0.155193
1.192869,-0.751101,0.146395
1.188163,-0.747229,0.137126
1.188792,-0.747747,0.128581
1.194766,-0.752663,0.120631
1.193778,-0.751850,0.111874
1.195828,-0.753536,0.103432
1.196298,-0.753923,0.094826
1.195956,-0.753642,0.086156
1.196344,-0.753961,0.077549
1.200547,-0.757420,0.069185
1.200083,-0.757038,0.060500
1.201121,-0.757892,0.051898
1.201346,-0.758077,0.043251
1.201530,-0.758229,0.034603
1.194476,-0.755951,0.216819
1.193956,-0.755521,0.207917
1.184997,-0.748119,0.197484
1.185911,-0.748874,0.188951
1.186020,-0.748964,0.180283
1.186853,-0.749652,0.171742
1.187645,-0.750307,0.163195
1.189163,-0.751561,0.154752
1.189875,-0.752149,0.146187
1.190546,-0.752703,0.137616
1.192712,-0.754493,0.129224
1.195607,-0.756885,0.120888
1.193853,-0.755436,0.112034
1.194363,-0.755857,0.103432
1.194832,-0.756244,0.094826
1.196029,-0.757234,0.086278
1.194878,-0.756282,0.077549
1.194454,-0.755932,0.068891
1.194759,-0.756185,0.060285
1.195024,-0.756404,0.051677
1.193707,-0.755315,0.043006
1.195432,-0.756740,0.034456
1.205595,-0.765137,0.026082
1.190118,-0.755873,0.233847
1.191202,-0.756772,0.225261
1.185400,-0.751959,0.215291
1.182589,-0.749628,0.206010
1.183542,-0.750419,0.197484
1.182929,-0.749910,0.188682
1.185327,-0.751899,0.180411
1.186159,-0.752589,0.171865
1.190008,-0.755782,0.163777
1.189996,-0.755772,0.155083
1.190708,-0.756363,0.146499
1.191380,-0.756920,0.137910
1.192778,-0.758079,0.129408
1.193368,-0.758569,0.120803
1.196220,-0.760934,0.112432
1.196731,-0.761358,0.103800
1.197201,-0.761748,0.095163
1.193020,-0.758280,0.086156
1.193407,-0.758601,0.077549
1.192984,-0.758250,0.068891
1.194058,-0.759141,0.060328
1.193553,-0.758722,0.051677
1.201470,-0.765289,0.043374
1.187118,-0.756908,0.251169
1.188282,-0.757878,0.242595
1.176521,-0.748084,0.231208
1.173798,-0.745816,0.221925
1.175583,-0.747303,0.213610
1.176571,-0.748125,0.205129
1.177518,-0.748914,0.196640
1.178425,-0.749669,0.188144
1.183103,-0.753564,0.180283
1.183933,-0.754256,0.171742
1.191582,-0.760625,0.155524
1.186180,-0.756128,0.146083
1.192967,-0.761779,0.138302
1.194956,-0.763435,0.121146
1.195506,-0.763894,0.112512
1.196017,-0.764318,0.103873
1.196486,-0.764709,0.095231
1.193847,-0.762511,0.086340
1.193466,-0.762195,0.077660
1.190742,-0.759926,0.068842
1.194117,-0.762737,0.060414
1.191310,-0.760399,0.051641
1.191533,-0.760585,0.043037
1.188643,-0.758178,0.034333
1.188785,-0.758296,0.025751
1.188886,-0.758380,0.017168
1.184136,-0.757949,0.250815
1.185296,-0.758919,0.242253
1.183390,-0.757326,0.233022
1.182952,-0.756959,0.224149
1.183987,-0.757825,0.215597
1.174357,-0.749774,0.204982
1.175302,-0.750564,0.196500
1.176207,-0.751321,0.188009
1.179355,-0.753952,0.179897
1.180181,-0.754643,0.171375
1.187064,-0.760397,0.163777
1.187052,-0.760387,0.155083
1.182421,-0.756516,0.145770
1.182324,-0.756434,0.137126
1.182949,-0.756957,0.128581
1.183534,-0.757446,0.120030
1.184079,-0.757902,0.111476
1.184584,-0.758324,0.102917
1.188875,-0.761911,0.094691
1.196193,-0.768029,0.086646
1.193516,-0.765791,0.077770
1.193862,-0.766080,0.069136
1.194167,-0.766335,0.060500
1.186765,-0.760147,0.051493
1.181619,-0.755845,0.042699
1.181800,-0.755996,0.034161
1.182708,-0.756755,0.025641
1.187411,-0.760687,0.017168
1.179646,-0.757716,0.250107
1.174010,-0.752985,0.240030
1.181917,-0.759622,0.233022
1.176186,-0.754812,0.223037
1.177214,-0.755675,0.214527
1.175172,-0.753960,0.205423
1.174601,-0.753481,0.196640
1.175505,-0.754240,0.188144
1.176369,-0.754965,0.179640
1.184795,-0.762038,0.172354
1.185585,-0.762701,0.163777
1.187096,-0.763969,0.155303
1.187044,-0.763925,0.146603
1.182377,-0.760008,0.137322
1.181477,-0.759252,0.128581
1.182061,-0.759743,0.120030
1.180315,-0.758277,0.111237
1.183109,-0.760622,0.102917
1.181280,-0.759087,0.094152
1.181702,-0.759442,0.085604
1.185144,-0.762330,0.077273
1.185487,-0.762618,0.068695
1.181963,-0.759661,0.059899
1.182225,-0.759880,0.051346
1.180915,-0.758780,0.042730
1.181095,-0.758932,0.034186
1.176641,-0.755193,0.025530
1.181336,-0.759134,0.017094
1.175932,-0.758077,0.249576
1.177083,-0.759047,0.241056
1.175177,-0.757441,0.231868
1.176245,-0.758341,0.223355
1.177273,-0.759207,0.214833
1.178261,-0.760040,0.206303
1.173909,-0.756373,0.196781
1.174813,-0.757134,0.188278
1.176434,-0.758501,0.179897
1.177258,-0.759195,0.171375
1.180321,-0.761776,0.163195
1.181067,-0.762404,0.154642
1.181772,-0.762998,0.146083
1.180916,-0.762277,0.137322
1.181540,-0.762803,0.128764
1.182124,-0.763295,0.120202
1.185717,-0.766322,0.111954
1.186222,-0.766748,0.103358
1.186687,-0.767140,0.094759
1.184822,-0.765568,0.085972
1.185205,-0.765891,0.077384
1.185548,-0.766180,0.068793
1.178210,-0.759997,0.059770
1.178471,-0.760216,0.051236
1.178691,-0.760402,0.042699
1.178872,-0.760554,0.034161
1.179012,-0.760672,0.025622
1.180641,-0.762045,0.017107
1.184525,-0.765318,0.008584
1.170266,-0.756813,0.257354
1.163938,-0.751460,0.247098
1.165075,-0.752422,0.238663
1.166174,-0.753351,0.230219
1.173263,-0.759348,0.223037
1.171827,-0.758134,0.188009
1.172688,-0.758862,0.179512
1.175025,-0.760838,0.171253
1.175048,-0.760859,0.162613
1.175790,-0.761486,0.154091
1.176492,-0.762080,0.145562
1.177154,-0.762640,0.137028
1.174735,-0.760594,0.128121
1.175315,-0.761084,0.119601
1.175856,-0.761541,0.111077
1.180163,-0.765185,0.102917
1.173769,-0.759777,0.093747
1.173427,-0.759487,0.085175
1.173806,-0.759807,0.076666
1.175670,-0.761384,0.068253
1.174444,-0.760348,0.059641
1.174704,-0.760567,0.051125
1.174923,-0.760753,0.042607
1.171287,-0.757677,0.033965
1.171426,-0.757794,0.025475
1.171525,-0.757878,0.016984
1.181510,-0.766325,0.008572
1.183057,-0.767633,0.000000
1.184564,-0.768908,-0.008596
1.171042,-0.760993,0.257903
1.172229,-0.762001,0.249399
1.173375,-0.762974,0.240885
1.162453,-0.753699,0.229724
1.163508,-0.754595,0.221289
1.164523,-0.755457,0.212846
1.165499,-0.756285,0.204396
1.166435,-0.757080,0.195937
1.167332,-0.757842,0.187471
1.178015,-0.766915,0.180668
1.178840,-0.767616,0.172109
1.179625,-0.768282,0.163544
1.179613,-0.768271,0.154862
1.180317,-0.768870,0.146291
1.180981,-0.769433,0.137714
1.179328,-0.768030,0.128856
1.179911,-0.768525,0.120288
1.176515,-0.765640,0.085542
1.172328,-0.762085,0.076666
1.172667,-0.762373,0.068155
1.172966,-0.762627,0.059641
1.173225,-0.762847,0.051125
1.170397,-0.760445,0.042485
1.173623,-0.763185,0.034088
1.173763,-0.763303,0.025567
1.173862,-0.763388,0.017045
1.175447,-0.764733,0.008535
1.178515,-0.767340,0.000000
1.181544,-0.769912,-0.008584
1.167002,-0.761082,0.248514
1.163644,-0.758219,0.239005
1.164740,-0.759154,0.230549
1.165797,-0.760055,0.222084
1.168318,-0.762205,0.213916
1.169297,-0.763039,0.205423
1.174004,-0.767052,0.197625
1.174906,-0.767822,0.189086
1.168978,-0.762767,0.179383
1.166774,-0.760888,0.170396
1.167550,-0.761550,0.161916
1.168286,-0.762177,0.153429
1.168983,-0.762771,0.144937
1.169640,-0.763331,0.136440
1.169499,-0.763212,0.127845
1.173867,-0.766936,0.119773
1.170614,-0.764162,0.110838
1.165799,-0.760057,0.101813
1.166255,-0.760445,0.093342
1.168190,-0.762095,0.084991
1.168567,-0.762417,0.076501
1.172704,-0.765944,0.068253
1.173003,-0.766199,0.059727
1.173262,-0.766420,0.051199
1.173481,-0.766607,0.042669
1.173661,-0.766760,0.034137
1.173039,-0.766230,0.025585
1.173139,-0.766315,0.017057
1.173960,-0.767014,0.008535
1.175501,-0.768329,0.000000
1.175481,-0.768312,-0.008547
1.178465,-0.770856,-0.017143
1.164618,-0.762573,0.265831
1.163597,-0.761699,0.256805
1.164775,-0.762707,0.248337
1.162170,-0.760477,0.239005
1.163264,-0.761414,0.230549
1.162069,-0.760391,0.221607
1.165335,-0.763186,0.213610
1.166311,-0.764022,0.205129
1.167247,-0.764823,0.196640
1.168144,-0.765591,0.188144
1.171261,-0.768259,0.180026
1.172081,-0.768961,0.171497
1.172860,-0.769628,0.162962
1.173600,-0.770261,0.154421
1.172789,-0.769567,0.145666
1.169668,-0.766895,0.136636
1.170285,-0.767423,0.128121
1.167078,-0.764678,0.119172
1.167613,-0.765137,0.110679
1.168109,-0.765562,0.102181
1.169324,-0.766601,0.093747
1.169741,-0.766958,0.085236
1.170877,-0.767931,0.076777
1.171215,-0.768220,0.068253
1.172272,-0.769125,0.059770
1.172531,-0.769346,0.051236
1.173509,-0.770184,0.042730
1.173689,-0.770337,0.034186
1.173828,-0.770456,0.025641
1.173928,-0.770542,0.017094
1.178545,-0.774495,0.008584
1.174007,-0.770610,0.000000
1.178545,-0.774495,-0.008584
1.180005,-0.775744,-0.017192
1.163136,-0.764833,0.265831
1.164353,-0.765879,0.257354
1.165531,-0.766892,0.248868
1.166669,-0.767870,0.240372
1.167768,-0.768814,0.231868
1.168827,-0.769724,0.223355
1.169847,-0.770600,0.214833
1.162574,-0.764351,0.204689
1.163507,-0.765153,0.196218
1.165904,-0.767212,0.188009
1.167511,-0.768593,0.179640
1.167574,-0.768648,0.171008
1.168350,-0.769315,0.162497
1.163810,-0.765413,0.153209
1.164503,-0.766009,0.144729
1.161383,-0.763327,0.135754
1.161995,-0.763853,0.127294
1.162568,-0.764346,0.118829
1.163857,-0.765454,0.110440
1.164352,-0.765878,0.101960
1.164806,-0.766269,0.093477
1.165222,-0.766626,0.084991
1.166355,-0.767600,0.076556
1.166691,-0.767889,0.068057
1.168504,-0.769446,0.059641
1.168761,-0.769668,0.051125
1.170496,-0.771158,0.042669
1.169158,-0.770008,0.034088
1.169297,-0.770128,0.025567
1.169396,-0.770213,0.017045
1.171731,-0.772219,0.008541
1.169475,-0.770281,0.000000
1.171731,-0.772219,-0.008541
1.174704,-0.774775,-0.017131
1.164622,-0.769656,0.266587
1.165841,-0.770707,0.258086
1.167020,-0.771725,0.249576
1.166668,-0.771421,0.240714
1.166273,-0.771080,0.231868
1.166583,-0.771347,0.223196
1.168348,-0.772871,0.214833
1.169327,-0.773714,0.206303
1.170265,-0.774524,0.197765
1.169664,-0.774005,0.188951
1.171340,-0.775451,0.171865
1.160838,-0.766391,0.161567
1.172858,-0.776761,0.154752
1.162913,-0.768181,0.136146
1.163526,-0.768710,0.127662
1.163345,-0.768554,0.119087
1.163878,-0.769014,0.110599
1.164373,-0.769440,0.102108
1.164827,-0.769833,0.093612
1.167510,-0.772147,0.085297
1.167886,-0.772472,0.076777
1.167467,-0.772110,0.068204
1.165494,-0.770408,0.059555
1.168021,-0.772588,0.051162
1.165212,-0.770165,0.042515
1.165390,-0.770318,0.034014
1.167799,-0.772397,0.025567
1.167898,-0.772482,0.017045
1.163415,-0.768614,0.008486
1.166463,-0.771244,0.000000
1.166443,-0.771227,-0.008510
1.166384,-0.771176,-0.017021
1.171584,-0.775662,-0.025659
1.158163,-0.767617,0.274102
1.158672,-0.768059,0.265452
1.157654,-0.767177,0.256439
1.158824,-0.768190,0.247983
1.156231,-0.765944,0.238663
1.156573,-0.766240,0.230054
1.156874,-0.766501,0.221448
1.157881,-0.767374,0.212999
1.158850,-0.768212,0.204542
1.158282,-0.767721,0.195796
1.157672,-0.767193,0.187067
1.158520,-0.767927,0.178612
1.157829,-0.767328,0.169906
1.158597,-0.767994,0.161450
1.159326,-0.768625,0.152988
1.163024,-0.771827,0.144937
1.159915,-0.769135,0.135950
1.160526,-0.769664,0.127478
1.161850,-0.770811,0.119087
1.161630,-0.770620,0.110520
1.162122,-0.771047,0.102034
1.162576,-0.771440,0.093545
1.162990,-0.771798,0.085052
1.163365,-0.772123,0.076556
1.164455,-0.773067,0.068106
1.167017,-0.775286,0.059727
1.165764,-0.774200,0.051125
1.165981,-0.774389,0.042607
1.166159,-0.774543,0.034088
1.164030,-0.772699,0.025512
1.164128,-0.772784,0.017008
1.161164,-0.770217,0.008480
1.161184,-0.770234,0.000000
1.161164,-0.770217,-0.008480
1.167908,-0.776058,-0.017070
1.167809,-0.775972,-0.025604
1.150749,-0.764716,0.272541
1.151991,-0.765797,0.264129
1.150969,-0.764908,0.255158
1.152131,-0.765918,0.246744
1.154741,-0.768188,0.238663
1.156571,-0.769779,0.230384
1.156873,-0.770041,0.221766
1.157881,-0.770917,0.213305
1.149145,-0.763321,0.202928
1.150065,-0.764121,0.194530
1.150946,-0.764888,0.186125
1.151789,-0.765620,0.177713
1.152592,-0.766319,0.169294
1.156354,-0.769590,0.161334
1.157082,-0.770223,0.152878
1.157770,-0.770821,0.144417
1.158419,-0.771386,0.135950
1.159029,-0.771916,0.127478
1.164111,-0.776334,0.119516
1.164644,-0.776798,0.110998
1.162128,-0.774611,0.102181
1.162582,-0.775005,0.093680
1.169775,-0.781259,0.085726
1.167138,-0.778967,0.076942
1.167474,-0.779259,0.068400
1.167771,-0.779517,0.059856
1.168029,-0.779741,0.051309
1.168247,-0.779931,0.042761
1.162390,-0.774838,0.034014
1.162527,-0.774958,0.025512
1.165644,-0.777668,0.017057
1.165703,-0.777719,0.008529
1.164968,-0.777080,0.000000
1.164949,-0.777063,-0.008523
1.161871,-0.774387,-0.016996
1.161773,-0.774302,-0.025493
1.161635,-0.774182,-0.033990
1.158145,-0.774664,0.274882
1.157177,-0.773819,0.265831
1.158386,-0.774874,0.257354
1.159556,-0.775895,0.248868
1.154007,-0.771051,0.238834
1.154348,-0.771349,0.230219
1.155393,-0.772261,0.221766
1.154909,-0.771839,0.212999
1.155874,-0.772681,0.204542
1.151579,-0.768932,0.195093
1.152462,-0.769702,0.186663
1.151811,-0.769134,0.177970
1.152614,-0.769835,0.169539
1.153378,-0.770502,0.161101
1.154103,-0.771136,0.152658
1.154790,-0.771734,0.144208
1.155437,-0.772299,0.135754
1.162893,-0.778808,0.102402
1.161843,-0.777892,0.093747
1.161505,-0.777596,0.085175
1.154357,-0.771357,0.076114
1.154689,-0.771647,0.067664
1.154983,-0.771903,0.059212
1.157495,-0.774096,0.050868
1.158464,-0.774942,0.042423
1.158640,-0.775096,0.033941
1.161791,-0.777846,0.025530
1.165655,-0.781219,0.017082
1.161948,-0.777983,0.008510
1.155941,-0.772739,0.000000
1.160441,-0.776668,-0.008498
1.160382,-0.776616,-0.016996
1.160284,-0.776531,-0.025493
1.160900,-0.777068,-0.034014
1.155164,-0.775618,0.274492
1.152718,-0.773475,0.265074
1.153922,-0.774530,0.256622
1.151386,-0.772307,0.247275
1.152507,-0.773290,0.238834
1.149881,-0.770989,0.229559
1.159089,-0.779058,0.222878
1.152884,-0.773620,0.204249
1.150084,-0.771167,0.195093
1.154691,-0.775204,0.187336
1.148078,-0.769408,0.177584
1.148878,-0.770110,0.169172
1.149639,-0.770777,0.160752
1.155594,-0.775995,0.153099
1.155533,-0.775942,0.144521
1.156929,-0.777165,0.136146
1.156789,-0.777042,0.127570
1.157358,-0.777541,0.119087
1.155639,-0.776034,0.110360
1.154628,-0.775149,0.101740
1.155078,-0.775543,0.093275
1.156990,-0.777219,0.084929
1.159616,-0.779519,0.076611
1.159950,-0.779812,0.068106
1.160244,-0.780070,0.059598
1.156742,-0.777001,0.050904
1.156205,-0.776531,0.042393
1.156381,-0.776685,0.033916
1.156518,-0.776805,0.025438
1.163384,-0.782822,0.017070
1.163463,-0.782891,0.000000
1.159683,-0.779579,-0.008504
1.159624,-0.779527,-0.017008
1.159526,-0.779441,-0.025512
1.159389,-0.779321,-0.034014
1.165226,-0.784436,-0.042761
1.149145,-0.773892,0.247098
1.146565,-0.771622,0.237808
1.147641,-0.772569,0.229394
1.148679,-0.773481,0.220972
1.146709,-0.771749,0.211930
1.147666,-0.772591,0.203515
1.144125,-0.769475,0.194249
1.145000,-0.770245,0.185856
1.145837,-0.770981,0.177456
1.146635,-0.771683,0.169049
1.147395,-0.772351,0.160636
1.152593,-0.776924,0.152878
1.145063,-0.770301,0.143271
1.145704,-0.770864,0.134872
1.147801,-0.772709,0.126651
1.155846,-0.779786,0.119087
1.148891,-0.773668,0.109802
1.154619,-0.778707,0.101887
1.158065,-0.781739,0.093680
1.155479,-0.779464,0.084929
1.155101,-0.779131,0.076390
1.155434,-0.779424,0.067910
1.155727,-0.779682,0.059427
1.155981,-0.779906,0.050941
1.156196,-0.780095,0.042454
1.156372,-0.780250,0.033965
1.156509,-0.780370,0.025475
1.152853,-0.777154,0.016922
1.149909,-0.774563,0.008437
1.149928,-0.774580,0.000000
1.149909,-0.774563,-0.008437
1.152102,-0.776493,-0.016910
1.152005,-0.776408,-0.025364
1.155622,-0.779589,-0.033941
1.158448,-0.782075,-0.042546
1.158982,-0.782546,-0.051088
1.149706,-0.777946,0.265074
1.152066,-0.780031,0.248160
1.147280,-0.775803,0.238321
1.154271,-0.781978,0.231208
1.141255,-0.770482,0.219701
1.142246,-0.771357,0.211319
1.143198,-0.772198,0.202928
1.139660,-0.769073,0.193686
1.140532,-0.769843,0.185318
1.149541,-0.777800,0.178355
1.143647,-0.772594,0.168804
1.144404,-0.773263,0.160403
1.151827,-0.779819,0.152988
1.145802,-0.774498,0.143584
1.146443,-0.775064,0.135166
1.153016,-0.780869,0.127478
1.153583,-0.781370,0.119001
1.151869,-0.779856,0.110280
1.152357,-0.780287,0.101813
1.149067,-0.777381,0.093005
1.148727,-0.777081,0.084500
1.149844,-0.778068,0.076114
1.150175,-0.778360,0.067664
1.152713,-0.780602,0.059341
1.152967,-0.780826,0.050868
1.153181,-0.781015,0.042393
1.152607,-0.780508,0.033891
1.152744,-0.780629,0.025420
1.149094,-0.777405,0.016886
1.152150,-0.780104,0.008468
1.149171,-0.777474,0.000000
1.152150,-0.780104,-0.008468
1.152092,-0.780053,-0.016935
1.151994,-0.779967,-0.025401
1.154106,-0.781832,-0.033941
1.155429,-0.783000,-0.042485
1.155214,-0.782810,-0.050978
1.139818,-0.772751,0.280340
1.141086,-0.773875,0.271956
1.140111,-0.773010,0.262994
1.133944,-0.767542,0.252778
1.135085,-0.768554,0.244443
1.136188,-0.769532,0.236098
1.137253,-0.770476,0.227745
1.138279,-0.771386,0.219383
1.140007,-0.772918,0.211166
1.140957,-0.773760,0.202782
1.142742,-0.775343,0.185991
1.142834,-0.775425,0.177456
1.143630,-0.776130,0.169049
1.153285,-0.784692,0.153429
1.153970,-0.785299,0.144937
1.154616,-0.785872,0.136440
1.150753,-0.782446,0.127386
1.149827,-0.781625,0.118743
1.150353,-0.782091,0.110280
1.150840,-0.782523,0.101813
1.151288,-0.782920,0.093342
1.147216,-0.779310,0.084500
1.147584,-0.779637,0.076059
1.144925,-0.777279,0.067419
1.145215,-0.777536,0.058997
1.143971,-0.776433,0.050500
1.145679,-0.777948,0.042147
1.151090,-0.782745,0.033891
1.154966,-0.786182,0.025512
1.155064,-0.786269,0.017008
1.155122,-0.786321,0.008504
1.155142,-0.786338,0.000000
1.147582,-0.779635,-0.016886
1.147485,-0.779549,-0.025328
1.148098,-0.780092,-0.033793
1.153158,-0.784579,-0.042454
1.152944,-0.784389,-0.050941
1.156428,-0.787478,-0.059641
1.134657,-0.771706,0.279334
1.135918,-0.772829,0.270980
1.137141,-0.773917,0.262616
1.132451,-0.769742,0.252778
1.133590,-0.770756,0.244443
1.130276,-0.767806,0.235073
1.131334,-0.768748,0.226756
1.132354,-0.769656,0.218430
1.134075,-0.771187,0.210249
1.141669,-0.777947,0.203222
1.150716,-0.786000,0.196359
1.143455,-0.779537,0.186394
1.143549,-0.779621,0.177841
1.145086,-0.780989,0.169539
1.145844,-0.781663,0.161101
1.145820,-0.781643,0.152548
1.147243,-0.782909,0.144208
1.147884,-0.783480,0.135754
1.149231,-0.784679,0.127386
1.149796,-0.785181,0.118915
1.151810,-0.786975,0.110599
1.152298,-0.787408,0.102108
1.153156,-0.788172,0.085113
1.146068,-0.781863,0.076059
1.146398,-0.782157,0.067615
1.146940,-0.782639,0.050720
1.147153,-0.782829,0.042270
1.148074,-0.783649,0.033842
1.144476,-0.780446,0.025291
1.141585,-0.777872,0.016812
1.141643,-0.777924,0.008406
1.142409,-0.778606,0.000000
1.142390,-0.778589,-0.008412
1.147560,-0.783191,-0.016910
1.148957,-0.784434,-0.025401
1.148821,-0.784314,-0.033867
1.147900,-0.783494,-0.042301
1.147686,-0.783304,-0.050757
1.148181,-0.783744,-0.059255
1.134416,-0.775033,0.270980
1.135636,-0.776124,0.262616
1.132420,-0.773250,0.253144
1.137963,-0.778202,0.245859
1.139068,-0.779191,0.237466
1.129840,-0.770943,0.226756
1.130858,-0.771853,0.218430
1.141418,-0.781290,0.212082
1.137206,-0.777526,0.202635
1.139590,-0.779657,0.194530
1.142678,-0.782416,0.186529
1.141293,-0.781179,0.177713
1.142087,-0.781888,0.169294
1.143583,-0.783225,0.160985
1.144300,-0.783866,0.152548
1.144979,-0.784472,0.144104
1.145619,-0.785044,0.135656
1.148448,-0.787572,0.127478
1.149012,-0.788076,0.119001
1.149537,-0.788545,0.110520
1.147792,-0.786986,0.101813
1.146751,-0.786056,0.093207
1.147158,-0.786419,0.084745
1.147526,-0.786749,0.076280
1.145621,-0.785047,0.067664
1.145912,-0.785306,0.059212
1.146163,-0.785531,0.050757
1.141159,-0.781059,0.042086
1.141332,-0.781214,0.033671
1.145195,-0.784665,0.025346
1.145291,-0.784752,0.016898
1.145349,-0.784803,0.008449
1.145369,-0.784821,0.000000
1.145349,-0.784803,-0.008449
1.145291,-0.784752,-0.016898
1.150413,-0.789329,-0.025475
1.146550,-0.785877,-0.033842
1.146376,-0.785721,-0.042301
1.149889,-0.788860,-0.050941
1.153361,-0.791963,-0.059641
1.128006,-0.772836,0.278329
1.123418,-0.768719,0.268444
1.130473,-0.775048,0.261671
1.125794,-0.770851,0.251863
1.126926,-0.771866,0.243558
1.128019,-0.772847,0.235244
1.130543,-0.775111,0.227250
1.131562,-0.776026,0.218907
1.133278,-0.777565,0.210707
1.134221,-0.778412,0.202341
1.135126,-0.779224,0.193968
1.135993,-0.780001,0.185587
1.136822,-0.780744,0.177199
1.136134,-0.780128,0.168560
1.138364,-0.782128,0.160403
1.142036,-0.785423,0.152437
1.138272,-0.782045,0.143375
1.138907,-0.782615,0.134970
1.139504,-0.783151,0.126559
1.137097,-0.780991,0.117800
1.137616,-0.781457,0.109404
1.140323,-0.783886,0.101225
1.138538,-0.782284,0.092601
1.138942,-0.782647,0.084193
1.141537,-0.784975,0.075949
1.141865,-0.785268,0.067517
1.142897,-0.786195,0.059126
1.143148,-0.786420,0.050684
1.143360,-0.786610,0.042239
1.138325,-0.782093,0.033621
1.138459,-0.782214,0.025217
1.138555,-0.782300,0.016812
1.140846,-0.784355,0.008425
1.140865,-0.784372,0.000000
1.141590,-0.785022,-0.008431
1.141533,-0.784971,-0.016861
1.141436,-0.784884,-0.025291
1.143534,-0.786766,-0.033793
1.147080,-0.789948,-0.042393
1.152818,-0.795095,-0.051162
1.128850,-0.777138,0.287678
1.124320,-0.773058,0.277725
1.125567,-0.774181,0.269420
1.126777,-0.775270,0.261104
1.127948,-0.776326,0.252778
1.134455,-0.782186,0.219860
1.131766,-0.779764,0.210707
1.134913,-0.782598,0.202782
1.134347,-0.782089,0.194108
1.136685,-0.784195,0.185991
1.136041,-0.783614,0.177327
1.138305,-0.785653,0.169172
1.137581,-0.785001,0.160520
1.136817,-0.784313,0.151886
1.136751,-0.784254,0.143375
1.138125,-0.785491,0.135068
1.137982,-0.785362,0.126559
1.135578,-0.783198,0.117800
1.136096,-0.783664,0.109404
1.141763,-0.788768,0.101519
1.139241,-0.786497,0.092803
1.139645,-0.786860,0.084377
1.142978,-0.789862,0.076169
1.143306,-0.790158,0.067713
1.143596,-0.790419,0.059255
1.143847,-0.790644,0.050794
1.138520,-0.785847,0.016837
1.138578,-0.785899,0.008418
1.140826,-0.787924,0.000000
1.140807,-0.787907,-0.008437
1.140749,-0.787855,-0.016873
1.141396,-0.788437,-0.025328
1.143490,-0.790323,-0.033842
1.144059,-0.790836,-0.042331
1.144589,-0.791313,-0.050831
1.114841,-0.767988,0.275513
1.120441,-0.773052,0.268444
1.121644,-0.774139,0.260158
1.131560,-0.783105,0.254059
1.132698,-0.784133,0.245682
1.138913,-0.789752,0.238492
1.134858,-0.786086,0.228899
1.135880,-0.787011,0.220495
1.133199,-0.784587,0.211319
1.135610,-0.786766,0.203222
1.135047,-0.786257,0.194530
1.133708,-0.785047,0.185721
1.134534,-0.785794,0.177327
1.135322,-0.786506,0.168927
1.135335,-0.786518,0.160403
1.136783,-0.787827,0.152107
1.139985,-0.790722,0.118486
1.138287,-0.789186,0.109802
1.135068,-0.786277,0.101004
1.134029,-0.785337,0.092466
1.135911,-0.787039,0.084193
1.134794,-0.786029,0.075673
1.135119,-0.786323,0.067272
1.138371,-0.789262,0.059040
1.138620,-0.789488,0.050610
1.134383,-0.785657,0.041994
1.139004,-0.789835,0.033744
1.139139,-0.789957,0.025309
1.134784,-0.786020,0.016800
1.133358,-0.784730,0.008388
1.142279,-0.792796,0.000000
1.137067,-0.788084,-0.008418
1.136268,-0.787361,-0.016824
1.136914,-0.787945,-0.025254
1.139746,-0.790506,-0.033769
1.139573,-0.790349,-0.042209
1.140103,-0.790828,-0.050684
1.128739,-0.784121,0.288506
1.119150,-0.775419,0.277122
1.120391,-0.776544,0.268834
1.130319,-0.785555,0.262805
1.123486,-0.779354,0.252412
1.132630,-0.787654,0.246036
1.134790,-0.789614,0.229229
1.128502,-0.783906,0.219224
1.133869,-0.788778,0.211777
1.134812,-0.789634,0.203368
1.131319,-0.786463,0.194108
1.132915,-0.787912,0.185856
1.135209,-0.789995,0.177713
1.135997,-0.790710,0.169294
1.135277,-0.790056,0.160636
1.135987,-0.790701,0.152217
1.133714,-0.788637,0.143375
1.134346,-0.789211,0.134970
1.131991,-0.787074,0.126191
1.132545,-0.787577,0.117800
1.130109,-0.785365,0.109085
1.127632,-0.783117,0.100416
1.128069,-0.783514,0.092061
1.128468,-0.783876,0.083703
1.131048,-0.786217,0.075507
1.134330,-0.789197,0.067321
1.134617,-0.789457,0.058911
1.134865,-0.789683,0.050500
1.135076,-0.789873,0.042086
1.135248,-0.790030,0.033671
1.135382,-0.790151,0.025254
1.135477,-0.790238,0.016837
1.136275,-0.790962,0.008425
1.136294,-0.790979,0.000000
1.137756,-0.792306,-0.008437
1.137699,-0.792254,-0.016873
1.140564,-0.794855,-0.025383
1.140429,-0.794733,-0.033842
1.140257,-0.794576,-0.042301
1.140045,-0.794384,-0.050757
1.132124,-0.790785,0.281144
1.122505,-0.782021,0.269810
1.122984,-0.782458,0.261293
1.120517,-0.780210,0.252046
1.125279,-0.784549,0.244620
1.126369,-0.785542,0.236269
1.127422,-0.786501,0.227910
1.124058,-0.783436,0.218589
1.123570,-0.782991,0.209943
1.123772,-0.783175,0.201461
1.124667,-0.783991,0.193124
1.126256,-0.785439,0.184914
1.127076,-0.786186,0.176556
1.125657,-0.784893,0.167825
1.127867,-0.786907,0.159705
1.127103,-0.786211,0.151115
1.127770,-0.786818,0.142751
1.123985,-0.783369,0.133793
1.124573,-0.783905,0.125456
1.125123,-0.784406,0.117113
1.125635,-0.784873,0.108767
1.126109,-0.785305,0.100416
1.126546,-0.785703,0.092061
1.126944,-0.786066,0.083703
1.131733,-0.790430,0.075673
1.128366,-0.787361,0.067026
1.128651,-0.787621,0.058654
1.128898,-0.787846,0.050279
1.129107,-0.788037,0.041902
1.129278,-0.788192,0.033523
1.131628,-0.790334,0.025199
1.131723,-0.790421,0.016800
1.132520,-0.791146,0.008406
1.132539,-0.791164,0.000000
1.132520,-0.791146,-0.008406
1.130984,-0.789747,-0.016787
1.130889,-0.789661,-0.025180
1.130756,-0.789539,-0.033572
1.130585,-0.789383,-0.041963
1.143671,-0.801308,-0.051015
1.123358,-0.786371,0.279133
1.123156,-0.786185,0.270395
1.124361,-0.787288,0.262049
1.125529,-0.788356,0.253693
1.123754,-0.786732,0.244620
1.124842,-0.787728,0.236269
1.125893,-0.788689,0.227910
1.125449,-0.788283,0.219224
1.126422,-0.789173,0.210860
1.121519,-0.784688,0.201314
1.126795,-0.789514,0.193827
1.127653,-0.790299,0.185452
1.128474,-0.791050,0.177070
1.127792,-0.790426,0.168437
1.128536,-0.791107,0.160054
1.123375,-0.786385,0.150784
1.124038,-0.786992,0.142438
1.124664,-0.787565,0.134087
1.125252,-0.788103,0.125731
1.122862,-0.785917,0.117028
1.124582,-0.787490,0.100416
1.125018,-0.787889,0.092061
1.134253,-0.796337,0.084439
1.134942,-0.796966,0.067566
1.135228,-0.797229,0.059126
1.136214,-0.798131,0.050720
1.132737,-0.794950,0.042117
1.132909,-0.795107,0.033695
1.136731,-0.798603,0.025364
1.136827,-0.798691,0.016910
1.133195,-0.795369,0.008425
1.132476,-0.794711,0.000000
1.129506,-0.791994,-0.008394
1.129449,-0.791942,-0.016787
1.129354,-0.791855,-0.025180
1.129221,-0.791733,-0.033572
1.126447,-0.792790,0.262994
1.124720,-0.791205,0.253876
1.125124,-0.791575,0.245328
1.126213,-0.792576,0.236953
1.126539,-0.792875,0.228405
1.123916,-0.790467,0.219224
1.124888,-0.791359,0.210860
1.123636,-0.790210,0.202048
1.122343,-0.789022,0.193264
1.123197,-0.789807,0.184914
1.121869,-0.788587,0.167703
1.122608,-0.789266,0.159357
1.123310,-0.789910,0.151004
1.123973,-0.790519,0.142647
1.122400,-0.789074,0.133989
1.121520,-0.788266,0.125456
1.121334,-0.788095,0.117028
1.121844,-0.788564,0.108687
1.122316,-0.788998,0.100342
1.122751,-0.789397,0.091994
1.123883,-0.790436,0.083703
1.130861,-0.796845,0.075838
1.129714,-0.795791,0.067321
1.129999,-0.796053,0.058911
1.130246,-0.796280,0.050500
1.130455,-0.796472,0.042086
1.130627,-0.796629,0.033671
1.129287,-0.795399,0.025217
1.129382,-0.795486,0.016812
1.134595,-0.800273,0.008449
1.129458,-0.795556,0.000000
1.127229,-0.793509,-0.008388
1.127909,-0.794133,-0.016787
1.127814,-0.794046,-0.025180
1.127681,-0.793924,-0.033572
1.131928,-0.797824,-0.042147
1.117210,-0.787882,0.269615
1.117686,-0.788320,0.261104
1.118122,-0.788722,0.252595
1.119966,-0.790423,0.244443
1.119601,-0.790086,0.235756
1.120646,-0.791050,0.227415
1.121653,-0.791978,0.219065
1.124802,-0.794881,0.211166
1.118464,-0.789037,0.201314
1.123720,-0.793884,0.193827
1.124576,-0.794673,0.185452
1.125394,-0.795426,0.177070
1.122525,-0.792782,0.168070
1.123264,-0.793463,0.159705
1.123966,-0.794110,0.151335
1.124630,-0.794722,0.142959
1.123793,-0.793950,0.134382
1.124380,-0.794492,0.126007
1.124197,-0.794323,0.117542
1.125441,-0.795470,0.109245
1.125915,-0.795907,0.100857
1.125618,-0.795633,0.092398
1.126015,-0.796000,0.084009
1.124907,-0.794978,0.075507
1.125229,-0.795275,0.067125
1.125513,-0.795536,0.058740
1.124290,-0.794409,0.050279
1.124498,-0.794600,0.041902
1.124668,-0.794757,0.033523
1.124800,-0.794879,0.025144
1.123481,-0.793663,-0.008369
1.119748,-0.790222,-0.016677
1.119654,-0.790135,-0.025015
1.119523,-0.790014,-0.033352
1.111829,-0.786487,0.259969
1.112981,-0.787553,0.251680
1.114095,-0.788585,0.243381
1.114450,-0.788913,0.234902
1.119108,-0.793224,0.227415
1.113103,-0.787666,0.209027
1.112574,-0.787176,0.200434
1.113457,-0.787994,0.192139
1.114304,-0.788778,0.183837
1.112930,-0.787506,0.175143
1.113700,-0.788218,0.166846
1.114432,-0.788897,0.158542
1.115128,-0.789540,0.150233
1.116515,-0.790824,0.142022
1.119327,-0.793427,0.133989
1.120643,-0.794644,0.125731
1.121190,-0.795151,0.117371
1.122431,-0.796300,0.109085
1.122904,-0.796737,0.100710
1.123338,-0.797139,0.092331
1.122270,-0.796151,0.083825
1.124094,-0.797839,0.075562
1.129547,-0.802885,0.067517
1.123233,-0.797042,0.058697
1.125679,-0.799305,0.050426
1.125887,-0.799498,0.042024
1.122389,-0.796260,0.033499
1.122521,-0.796382,0.025125
1.121881,-0.795791,0.016738
1.121938,-0.795843,0.008369
1.121956,-0.795860,0.000000
1.119736,-0.793805,-0.008351
1.118946,-0.793074,-0.016689
1.118852,-0.792987,-0.025033
1.118720,-0.792865,-0.033376
1.127354,-0.800856,-0.042086
1.116055,-0.793991,0.261482
1.117211,-0.795066,0.253144
1.111120,-0.789407,0.243027
1.116525,-0.794428,0.235756
1.113230,-0.791367,0.226426
1.113506,-0.791624,0.217953
1.113743,-0.791844,0.209485
1.113942,-0.792028,0.201021
1.111200,-0.789481,0.191998
1.112044,-0.790265,0.183703
1.112852,-0.791015,0.175400
1.116530,-0.794433,0.167580
1.123617,-0.801018,0.134774
1.121286,-0.798852,0.126007
1.121834,-0.799361,0.117628
1.122344,-0.799835,0.109245
1.119893,-0.797558,0.100563
1.120327,-0.797961,0.092196
1.122185,-0.799687,0.083948
1.122543,-0.800020,0.075562
1.118474,-0.796239,0.066879
1.118756,-0.796501,0.058525
1.119000,-0.796728,0.050168
1.119207,-0.796920,0.041810
1.117911,-0.795716,0.033401
1.118042,-0.795838,0.025052
1.119601,-0.797287,0.016726
1.117460,-0.795297,0.008345
1.117479,-0.795315,0.000000
1.117460,-0.795297,-0.008345
1.116671,-0.794564,-0.016677
1.116578,-0.794477,-0.025015
1.117179,-0.795036,-0.033376
1.125797,-0.803043,-0.042086
1.120698,-0.801928,0.254425
1.112464,-0.794248,0.243735
1.111378,-0.793234,0.234902
1.105922,-0.788145,0.225106
1.106913,-0.789070,0.216841
1.107868,-0.789960,0.208568
1.108785,-0.790816,0.200287
1.109665,-0.791637,0.191998
1.111233,-0.793099,0.183837
1.117115,-0.798586,0.176428
1.109905,-0.791860,0.166723
1.111360,-0.793218,0.158542
1.120048,-0.801322,0.151445
1.112709,-0.794476,0.141918
1.112599,-0.794374,0.133499
1.113907,-0.795594,0.125272
1.117365,-0.798819,0.117285
1.117873,-0.799293,0.108926
1.118343,-0.799731,0.100563
1.118775,-0.800134,0.092196
1.121360,-0.802545,0.084009
1.119527,-0.800836,0.075452
1.122038,-0.803178,0.067223
1.122321,-0.803442,0.058825
1.122566,-0.803671,0.050426
1.114733,-0.796365,0.041687
1.114902,-0.796522,0.033352
1.113570,-0.795280,0.024978
1.113664,-0.795367,0.016652
1.113720,-0.795419,0.008326
1.115932,-0.797483,0.000000
1.119570,-0.800876,-0.008375
1.120976,-0.802187,-0.016775
1.120882,-0.802100,-0.025162
1.115949,-0.801116,0.244974
1.108397,-0.794044,0.234560
1.104389,-0.790291,0.225106
1.105379,-0.791218,0.216841
1.106332,-0.792110,0.208568
1.106525,-0.792291,0.200140
1.107403,-0.793113,0.191858
1.111137,-0.796610,0.184106
1.108324,-0.793975,0.175143
1.109089,-0.794692,0.166846
1.111993,-0.797411,0.158891
1.114794,-0.800034,0.142438
1.117592,-0.802654,0.134382
1.118175,-0.803200,0.126007
1.118721,-0.803711,0.117628
1.117046,-0.802143,0.109006
1.115332,-0.800538,0.100416
1.115035,-0.800259,0.091994
1.116156,-0.801310,0.083703
1.115784,-0.800961,0.075286
1.115373,-0.800577,0.066879
1.115654,-0.800839,0.058525
1.111726,-0.797161,0.041626
1.111894,-0.797318,0.033302
1.112754,-0.798124,0.024996
1.112847,-0.798211,0.016665
1.112903,-0.798264,0.008333
1.114382,-0.799648,0.000000
1.114363,-0.799631,-0.008345
1.124525,-0.809147,-0.016861
1.124431,-0.809058,-0.025291
1.108107,-0.797738,0.252046
1.103479,-0.793386,0.242319
1.101673,-0.791687,0.233363
1.105571,-0.795353,0.225766
1.103685,-0.793580,0.216841
1.104636,-0.794474,0.208568
1.103388,-0.793300,0.199847
1.105705,-0.795479,0.191858
1.106544,-0.796268,0.183568
1.107346,-0.797022,0.175271
1.108111,-0.797742,0.166968
1.108839,-0.798426,0.158659
1.109529,-0.799076,0.150343
1.110183,-0.799690,0.142022
1.110799,-0.800270,0.133695
1.113554,-0.802861,0.125640
1.114097,-0.803371,0.117285
1.114602,-0.803847,0.108926
1.119430,-0.808386,0.101004
1.115502,-0.804692,0.092196
1.110078,-0.799592,0.083335
1.110432,-0.799925,0.075010
1.109293,-0.798854,0.066585
1.109572,-0.799116,0.058267
1.109814,-0.799344,0.049947
1.110019,-0.799536,0.041626
1.110186,-0.799694,0.033302
1.107403,-0.797076,0.024904
1.107496,-0.797164,0.016603
1.107552,-0.797216,0.008302
1.109756,-0.799289,0.000000
1.111194,-0.800641,-0.008333
1.111867,-0.801274,-0.016677
1.111773,-0.801186,-0.025015
1.108953,-0.802477,0.244089
1.106441,-0.800105,0.234902
1.107471,-0.801077,0.226591
1.104156,-0.797947,0.217318
1.105107,-0.798845,0.209027
1.103864,-0.797671,0.200287
1.106898,-0.800537,0.192420
1.107738,-0.801330,0.184106
1.105657,-0.799364,0.175271
1.106420,-0.800085,0.166968
1.112201,-0.805545,0.159473
1.112171,-0.805516,0.151004
1.108488,-0.802038,0.142022
1.106932,-0.800569,0.133401
1.109681,-0.803164,0.125364
1.108048,-0.801623,0.116770
1.106377,-0.800044,0.108209
1.105391,-0.799113,0.099754
1.107268,-0.800885,0.091589
1.107658,-0.801254,0.083274
1.108737,-0.802273,0.075010
1.111231,-0.804629,0.066830
1.111511,-0.804893,0.058482
1.112479,-0.805807,0.050168
1.112685,-0.806001,0.041810
1.110672,-0.804101,0.033376
1.107895,-0.801478,0.024960
1.107261,-0.800879,0.016628
1.107316,-0.800931,0.008314
1.108062,-0.801635,0.000000
1.108043,-0.801618,-0.008320
1.106534,-0.800192,-0.016616
1.110075,-0.803537,-0.025015
1.109945,-0.803414,-0.033352
1.104378,-0.802137,0.243381
1.104013,-0.801791,0.234731
1.105040,-0.802765,0.226426
1.106030,-0.803703,0.218112
1.106982,-0.804606,0.209791
1.107898,-0.805475,0.201461
1.109617,-0.807106,0.184779
1.110421,-0.807868,0.176428
1.105427,-0.803132,0.167091
1.106153,-0.803820,0.158775
1.106841,-0.804473,0.150453
1.109657,-0.807144,0.142438
1.110273,-0.807727,0.134087
1.110851,-0.808276,0.125731
1.109223,-0.806732,0.117113
1.109726,-0.807209,0.108767
1.110192,-0.807651,0.100416
1.111344,-0.808744,0.092128
1.111736,-0.809115,0.083764
1.112090,-0.809451,0.075397
1.106610,-0.804253,0.066634
1.106888,-0.804517,0.058310
1.107129,-0.804746,0.049984
1.107333,-0.804939,0.041656
1.103148,-0.800970,0.033180
1.102551,-0.800404,0.024867
1.102644,-0.800492,0.016579
1.102699,-0.800544,0.008290
1.105620,-0.803314,0.000000
1.111406,-0.808802,-0.008363
1.111350,-0.808749,-0.016726
1.112707,-0.810037,-0.025125
1.112577,-0.809913,-0.033499
1.101583,-0.803470,0.234560
1.102607,-0.804445,0.226261
1.103594,-0.805385,0.217953
1.104544,-0.806290,0.209638
1.100443,-0.802384,0.200287
1.109200,-0.810725,0.193546
1.103584,-0.805376,0.183972
1.104383,-0.806137,0.175657
1.105145,-0.806862,0.167335
1.111623,-0.813033,0.159938
1.106558,-0.808208,0.150674
1.107209,-0.808828,0.142334
1.101337,-0.803235,0.133107
1.108399,-0.809962,0.125640
1.102446,-0.804292,0.116513
1.102945,-0.804767,0.108209
1.107740,-0.809335,0.100342
1.108168,-0.809742,0.091994
1.108558,-0.810113,0.083641
1.108911,-0.810450,0.075286
1.105611,-0.807306,0.066683
1.105888,-0.807571,0.058353
1.101788,-0.803665,0.049800
1.106333,-0.807994,0.041687
1.105052,-0.806774,0.033302
1.107353,-0.808966,0.025033
1.107446,-0.809054,0.016689
1.107502,-0.809107,0.008345
1.107520,-0.809125,0.000000
1.111122,-0.812556,-0.008375
1.111066,-0.812503,-0.016751
1.110973,-0.812414,-0.025125
1.098597,-0.804245,0.234218
1.093202,-0.799086,0.224447
1.094179,-0.800021,0.216206
1.095119,-0.800920,0.207957
1.096023,-0.801784,0.199700
1.099037,-0.804666,0.191858
1.099870,-0.805462,0.183568
1.096365,-0.802111,0.174500
1.097120,-0.802833,0.166234
1.097839,-0.803521,0.157961
1.098521,-0.804173,0.149682
1.104917,-0.810289,0.142230
1.102822,-0.808285,0.108368
1.097517,-0.803213,0.099459
1.097940,-0.803617,0.091184
1.096883,-0.802607,0.082783
1.097954,-0.803630,0.074569
1.098988,-0.804619,0.066339
1.100708,-0.806264,0.058138
1.098781,-0.804421,0.049727
1.101150,-0.806687,0.041534
1.101316,-0.806845,0.033229
1.101445,-0.806969,0.024923
1.101537,-0.807057,0.016616
1.103038,-0.808492,0.008320
1.103056,-0.808509,0.000000
1.105206,-0.810565,-0.008339
1.105150,-0.810512,-0.016677
1.107948,-0.813188,-0.025088
1.096629,-0.805989,0.225601
1.094760,-0.804195,0.216683
1.095701,-0.805098,0.208415
1.096605,-0.805966,0.200140
1.096044,-0.805428,0.191577
1.095444,-0.804852,0.183030
1.094805,-0.804238,0.174500
1.095559,-0.804962,0.166234
1.096277,-0.805651,0.157961
1.095524,-0.804928,0.149461
1.097602,-0.806923,0.141397
1.092466,-0.801993,0.132323
1.093034,-0.802538,0.124077
1.093565,-0.803047,0.115826
1.094778,-0.804212,0.107651
1.094517,-0.803961,0.099312
1.095658,-0.805057,0.091117
1.101083,-0.810265,0.083274
1.096391,-0.805761,0.074569
1.100306,-0.809519,0.066536
1.102023,-0.811167,0.058310
1.100821,-0.810013,0.049911
1.101024,-0.810208,0.041595
1.101189,-0.810367,0.033278
1.100597,-0.809798,0.024941
1.099968,-0.809194,0.016616
1.100023,-0.809247,0.008308
1.099320,-0.808572,0.000000
1.099301,-0.808554,-0.008302
1.099968,-0.809194,-0.016616
1.102761,-0.811875,-0.024996
1.094369,-0.807408,0.225436
1.091792,-0.804925,0.216365
1.092730,-0.805829,0.208110
1.096480,-0.809443,0.200434
1.092357,-0.805469,0.191155
1.098178,-0.811079,0.183837
1.098972,-0.811844,0.175528
1.101158,-0.813951,0.167458
1.093298,-0.806376,0.157728
1.093976,-0.807030,0.149461
1.093186,-0.806268,0.140981
1.095224,-0.808232,0.132911
1.091491,-0.804634,0.124077
1.092021,-0.805145,0.115826
1.093232,-0.806313,0.107651
1.095126,-0.808137,0.099533
1.095547,-0.808543,0.091252
1.095932,-0.808914,0.082967
1.096280,-0.809250,0.074679
1.099469,-0.812323,0.066585
1.099745,-0.812588,0.058267
1.099984,-0.812819,0.049947
1.095148,-0.808159,0.041411
1.100351,-0.813173,0.033302
1.100480,-0.813297,0.024978
1.096972,-0.809917,0.016591
1.097747,-0.810663,0.008302
1.097765,-0.810681,0.000000
1.097747,-0.810663,-0.008302
1.097692,-0.810610,-0.016603
1.104080,-0.816766,-0.025070
1.088790,-0.805694,0.216047
1.089015,-0.805911,0.207651
1.089912,-0.806779,0.199407
1.089350,-0.806236,0.190873
1.091598,-0.808411,0.182895
1.092387,-0.809173,0.174629
1.094565,-0.811281,0.166601
1.093854,-0.810593,0.158077
1.094533,-0.811249,0.149792
1.090171,-0.807030,0.140772
1.090774,-0.807613,0.132519
1.091340,-0.808161,0.124261
1.091870,-0.808673,0.115998
1.092363,-0.809151,0.107731
1.092523,-0.809306,0.091117
1.092907,-0.809677,0.082844
1.096842,-0.813484,0.074845
1.098590,-0.815174,0.066634
1.098865,-0.815441,0.058310
1.099104,-0.815672,0.049984
1.099306,-0.815867,0.041656
1.098753,-0.815332,0.033302
1.098881,-0.815456,0.024978
1.098254,-0.814850,0.016640
1.098309,-0.814903,0.008320
1.096890,-0.813530,0.000000
1.096872,-0.813513,-0.008308
1.096817,-0.813459,-0.016616
1.090075,-0.810534,0.216683
1.086757,-0.807312,0.207499
1.087652,-0.808181,0.199260
1.089221,-0.809705,0.191155
1.089333,-0.809814,0.182761
1.090831,-0.811269,0.174629
1.092296,-0.812691,0.158077
1.091547,-0.811964,0.149572
1.088620,-0.809122,0.140772
1.089221,-0.809706,0.132519
1.089787,-0.810255,0.124261
1.089601,-0.810074,0.115912
1.091523,-0.811941,0.107810
1.091979,-0.812384,0.099533
1.092399,-0.812792,0.091252
1.094931,-0.815250,0.083151
1.095278,-0.815588,0.074845
1.093440,-0.813803,0.066389
1.095864,-0.816157,0.058224
1.097536,-0.817780,0.049984
1.089850,-0.810316,0.041319
1.095034,-0.815351,0.033229
1.095162,-0.815475,0.024923
1.093819,-0.814170,0.016591
1.093156,-0.813527,0.008290
1.093174,-0.813545,0.000000
1.093156,-0.813527,-0.008290
1.093819,-0.814170,-0.016591
1.092263,-0.816319,0.209027
1.088914,-0.813054,0.199847
1.089064,-0.813201,0.191436
1.089887,-0.814003,0.183164
1.090674,-0.814770,0.174886
1.087871,-0.812037,0.165989
1.085737,-0.809957,0.157263
1.087122,-0.811307,0.149131
1.086335,-0.810539,0.140668
1.086222,-0.810430,0.132323
1.086785,-0.810979,0.124077
1.089452,-0.813579,0.116084
1.092085,-0.816146,0.108049
1.093256,-0.817288,0.099827
1.093676,-0.817697,0.091521
1.094060,-0.818072,0.083212
1.094408,-0.818410,0.074900
1.092573,-0.816621,0.066438
1.092847,-0.816888,0.058138
1.093084,-0.817119,0.049837
1.093284,-0.817315,0.041534
1.088438,-0.812590,0.033057
1.091429,-0.815506,0.024867
1.091520,-0.815595,0.016579
1.095154,-0.819138,0.008320
1.094457,-0.818458,0.000000
1.095154,-0.819138,-0.008320
1.087851,-0.815674,0.208415
1.085212,-0.813091,0.199407
1.081823,-0.809774,0.190311
1.084764,-0.812652,0.182491
1.085546,-0.813418,0.174243
1.086292,-0.814148,0.165989
1.087002,-0.814843,0.157728
1.087675,-0.815502,0.149461
1.086069,-0.813929,0.132519
1.085920,-0.813784,0.124169
1.087159,-0.814996,0.115998
1.086937,-0.814779,0.107651
1.087391,-0.815223,0.099386
1.089947,-0.817726,0.091319
1.090330,-0.818100,0.083028
1.087821,-0.815645,0.074514
1.092413,-0.820139,0.066536
1.091972,-0.819708,0.058181
1.088638,-0.816444,0.049690
1.089552,-0.817339,0.041442
1.089716,-0.817499,0.033155
1.089129,-0.816924,0.024849
1.089219,-0.817013,0.016567
1.089274,-0.817066,0.008283
1.088578,-0.816385,0.000000
1.089274,-0.817066,-0.008283
1.090649,-0.818412,-0.016591
1.088570,-0.820049,0.200434
1.086605,-0.818118,0.191577
1.087425,-0.818924,0.183299
1.088209,-0.819694,0.175014
1.085417,-0.816951,0.166111
1.086126,-0.817648,0.157844
1.080418,-0.812040,0.148580
1.081051,-0.812661,0.140356
1.080937,-0.812549,0.132029
1.082207,-0.813797,0.123893
1.083442,-0.815011,0.115741
1.083931,-0.815491,0.107492
1.082249,-0.813838,0.099018
1.084799,-0.816344,0.090982
1.087315,-0.818816,0.082906
1.085523,-0.817056,0.074458
1.085831,-0.817358,0.066192
1.086103,-0.817625,0.057924
1.086338,-0.817856,0.049653
1.086537,-0.818052,0.041380
1.086700,-0.818212,0.033106
1.086827,-0.818337,0.024831
1.087631,-0.819126,0.016567
1.087685,-0.819180,0.008283
1.086990,-0.818497,0.000000
1.087685,-0.819180,-0.008283
1.088384,-0.823551,0.200727
1.077965,-0.813274,0.190170
1.077367,-0.812684,0.181684
1.077437,-0.812752,0.173344
1.078176,-0.813482,0.165132
1.078880,-0.814175,0.156914
1.079547,-0.814834,0.148690
1.080179,-0.815457,0.140460
1.081483,-0.816743,0.132323
1.082752,-0.817995,0.124169
1.082567,-0.817812,0.115826
1.083055,-0.818294,0.107571
1.083507,-0.818739,0.099312
1.088184,-0.823353,0.091454
1.084302,-0.819524,0.082783
1.086067,-0.821265,0.074624
1.086375,-0.821569,0.066339
1.086647,-0.821837,0.058053
1.086171,-0.821368,0.049727
1.087082,-0.822266,0.041472
1.086533,-0.821725,0.033155
1.086660,-0.821850,0.024867
1.086039,-0.821237,0.016567
1.086093,-0.821290,0.008283
1.086111,-0.821308,0.000000
1.082716,-0.821635,0.191436
1.076491,-0.815471,0.181819
1.077266,-0.816238,0.173601
1.076595,-0.815574,0.165132
1.077297,-0.816269,0.156914
1.074432,-0.813432,0.148139
1.075767,-0.814753,0.140044
1.076359,-0.815340,0.131833
1.082577,-0.821497,0.124353
1.083101,-0.822016,0.116084
1.083589,-0.822499,0.107810
1.084041,-0.822947,0.099533
1.086584,-0.825465,0.091454
1.085546,-0.824437,0.083028
1.085890,-0.824778,0.074734
1.082649,-0.821569,0.066192
1.082919,-0.821836,0.057924
1.083154,-0.822069,0.049653
1.083352,-0.822265,0.041380
1.081384,-0.820316,0.033032
1.082931,-0.821848,0.024812
1.081600,-0.820530,0.016517
1.083075,-0.821990,0.008271
1.083093,-0.822008,0.000000
1.079714,-0.822340,0.191155
1.077717,-0.820354,0.182357
1.077086,-0.819727,0.173858
1.073601,-0.816263,0.164887
1.074301,-0.816958,0.156681
1.079194,-0.821823,0.149131
1.079825,-0.822450,0.140877
1.080420,-0.823042,0.132617
1.080979,-0.823597,0.124353
1.077970,-0.820605,0.115655
1.078455,-0.821088,0.107412
1.078905,-0.821535,0.099165
1.080026,-0.822649,0.090982
1.080404,-0.823025,0.082722
1.080746,-0.823365,0.074458
1.078218,-0.820853,0.065996
1.078488,-0.821120,0.057752
1.078721,-0.821352,0.049506
1.077501,-0.820139,0.041196
1.077662,-0.820300,0.032959
1.077788,-0.820424,0.024720
1.077877,-0.820513,0.016481
1.077222,-0.819862,0.008234
1.077240,-0.819880,0.000000
1.085023,-0.827617,-0.008302
1.076714,-0.823036,0.190873
1.077525,-0.823845,0.182626
1.075492,-0.821817,0.173858
1.076230,-0.822552,0.165622
1.074822,-0.821148,0.157030
1.077597,-0.823917,0.149131
1.078226,-0.824545,0.140877
1.074594,-0.820920,0.132029
1.076559,-0.822881,0.123985
1.077080,-0.823401,0.115741
1.076859,-0.823180,0.107412
1.075896,-0.822219,0.099018
1.077720,-0.824040,0.090914
1.078097,-0.824416,0.082660
1.078438,-0.824757,0.074403
1.076622,-0.822945,0.065996
1.076891,-0.823213,0.057752
1.075709,-0.822033,0.049432
1.075906,-0.822230,0.041196
1.074652,-0.820978,0.032910
1.072654,-0.818984,0.024628
1.072743,-0.819073,0.016419
1.072797,-0.819126,0.008210
