1.265075,-0.552647,0.228899
1.265410,-0.552849,0.220336
1.263159,-0.551496,0.211319
1.257465,-0.548074,0.201754
1.258505,-0.548698,0.193405
1.259500,-0.549296,0.185048
1.257901,-0.548336,0.176299
1.258806,-0.548880,0.167947
1.259667,-0.549397,0.159589
1.259633,-0.549376,0.151115
1.259553,-0.549329,0.142647
1.260281,-0.549766,0.134283
1.260112,-0.549664,0.125823
1.261606,-0.550562,0.117542
1.268183,-0.554515,0.109723
1.268738,-0.554848,0.101298
1.261552,-0.550530,0.092263
1.262015,-0.550808,0.083887
1.259867,-0.549517,0.075342
1.260241,-0.549742,0.066977
1.260571,-0.549940,0.058611
1.260857,-0.550112,0.050242
1.267953,-0.554377,0.042117
1.263155,-0.554593,0.228734
1.261799,-0.553774,0.219860
1.262932,-0.554458,0.211471
1.264020,-0.555115,0.203075
1.264217,-0.555234,0.194530
1.260127,-0.552765,0.185318
1.261079,-0.553339,0.176942
1.261986,-0.553887,0.168560
1.262850,-0.554408,0.160171
1.263669,-0.554903,0.151776
1.264444,-0.555371,0.143375
1.265175,-0.555812,0.134970
1.258190,-0.551596,0.125731
1.258829,-0.551981,0.117371
1.256863,-0.550794,0.108767
1.257412,-0.551126,0.100416
1.258772,-0.551947,0.092128
1.259234,-0.552226,0.083764
1.258797,-0.551962,0.075342
1.260026,-0.552704,0.067026
1.259501,-0.552387,0.058611
1.259787,-0.552559,0.050242
1.266751,-0.559879,0.238321
1.258702,-0.554999,0.228075
1.258188,-0.554687,0.219383
1.261008,-0.556397,0.211319
1.262094,-0.557056,0.202928
1.261444,-0.556661,0.194249
1.262441,-0.557266,0.185856
1.265090,-0.558872,0.177713
1.262606,-0.557366,0.168804
1.258374,-0.554800,0.159705
1.258340,-0.554779,0.151225
1.255710,-0.553184,0.142438
1.256435,-0.553624,0.134087
1.257117,-0.554038,0.125731
1.257754,-0.554424,0.117371
1.258348,-0.554784,0.109006
1.258898,-0.555118,0.100636
1.259404,-0.555425,0.092263
1.258159,-0.554670,0.083764
1.258577,-0.554923,0.075397
1.258951,-0.555149,0.067026
1.259280,-0.555349,0.058654
1.259566,-0.555523,0.050279
1.265791,-0.559297,0.042117
1.268554,-0.560972,0.033769
1.259771,-0.558750,0.237124
1.260992,-0.559494,0.228734
1.261325,-0.559697,0.220177
1.262457,-0.560386,0.211777
1.263545,-0.561049,0.203368
1.262052,-0.560139,0.194530
1.259664,-0.558685,0.185587
1.260615,-0.559264,0.177199
1.259826,-0.558784,0.168560
1.260687,-0.559308,0.160171
1.261505,-0.559806,0.151776
1.265676,-0.562346,0.143792
1.263007,-0.560721,0.134970
1.263693,-0.561139,0.126559
1.257526,-0.557383,0.117457
1.257269,-0.557227,0.109006
1.257818,-0.557561,0.100636
1.254915,-0.555793,0.091994
1.255375,-0.556073,0.083641
1.255791,-0.556327,0.075286
1.256164,-0.556554,0.066928
1.259053,-0.558313,0.058697
1.259338,-0.558487,0.050315
1.259580,-0.558634,0.041932
1.262340,-0.560315,0.033621
1.256162,-0.559653,0.236611
1.257379,-0.560397,0.228240
1.258552,-0.561115,0.219860
1.259681,-0.561805,0.211471
1.260765,-0.562469,0.203075
1.261806,-0.563105,0.194671
1.258752,-0.561237,0.160054
1.255328,-0.559143,0.151115
1.256097,-0.559613,0.142751
1.256822,-0.560057,0.134382
1.254106,-0.558396,0.125640
1.254742,-0.558784,0.117285
1.257885,-0.560707,0.109165
1.258435,-0.561043,0.100783
1.258940,-0.561352,0.092398
1.259402,-0.561635,0.084009
1.255561,-0.559285,0.075342
1.255933,-0.559513,0.066977
1.255410,-0.559193,0.058568
1.256547,-0.559888,0.050242
1.259346,-0.561600,0.041963
1.268925,-0.567459,0.033842
1.262171,-0.566451,0.229394
1.262507,-0.566658,0.220813
1.258587,-0.564250,0.211471
1.259671,-0.564916,0.203075
1.260711,-0.565554,0.194671
1.255796,-0.562535,0.185318
1.253363,-0.561041,0.176428
1.254264,-0.561594,0.168070
1.254274,-0.561601,0.159589
1.255087,-0.562100,0.151225
1.255856,-0.562572,0.142855
1.256581,-0.563017,0.134480
1.253019,-0.560830,0.125640
1.253654,-0.561220,0.117285
1.254246,-0.561583,0.108926
1.254794,-0.561919,0.100563
1.255297,-0.562229,0.092196
1.257458,-0.563556,0.083948
1.258726,-0.564335,0.075617
1.258249,-0.564042,0.067174
1.258578,-0.564244,0.058782
1.259715,-0.564942,0.050426
1.259105,-0.564568,0.041994
1.259302,-0.564689,0.033597
1.261160,-0.565830,0.025236
1.266118,-0.571981,0.230384
1.260577,-0.568562,0.220654
1.260866,-0.568741,0.212082
1.261951,-0.569411,0.203662
1.252882,-0.563815,0.193546
1.253871,-0.564425,0.185183
1.253972,-0.564487,0.176685
1.252339,-0.563480,0.167947
1.255730,-0.565572,0.159938
1.254005,-0.564508,0.151225
1.254773,-0.564982,0.142855
1.255497,-0.565429,0.134480
1.255330,-0.565326,0.126007
1.255118,-0.565195,0.117542
1.256559,-0.566083,0.109245
1.256259,-0.565898,0.100783
1.255065,-0.565162,0.092263
1.252976,-0.563873,0.083703
1.251692,-0.563081,0.075231
1.252063,-0.563310,0.066879
1.252391,-0.563512,0.058525
1.252674,-0.563687,0.050168
1.252915,-0.563835,0.041810
1.253962,-0.564481,0.033474
1.256668,-0.566151,0.025162
1.261268,-0.572123,0.238321
1.258298,-0.570282,0.229064
1.259470,-0.571009,0.220654
1.250519,-0.565462,0.210402
1.250753,-0.565608,0.201901
1.245052,-0.562075,0.192420
1.246034,-0.562683,0.184106
1.246972,-0.563265,0.175785
1.253773,-0.567479,0.168315
1.254629,-0.568009,0.159938
1.256286,-0.569036,0.151666
1.257056,-0.569513,0.143271
1.259473,-0.571010,0.135068
1.260794,-0.571829,0.118229
1.261389,-0.572198,0.109802
1.258548,-0.570438,0.101078
1.259054,-0.570751,0.092668
1.259515,-0.571037,0.084255
1.257386,-0.569718,0.075673
1.257759,-0.569949,0.067272
1.258088,-0.570152,0.058868
1.257524,-0.569803,0.050426
1.257765,-0.569952,0.042024
1.256263,-0.569021,0.033572
1.256416,-0.569116,0.025180
1.256525,-0.569184,0.016787
1.253463,-0.570406,0.236953
1.254676,-0.571161,0.228570
1.246901,-0.566323,0.209943
1.253852,-0.570648,0.202635
1.254886,-0.571292,0.194249
1.255876,-0.571908,0.185856
1.256822,-0.572497,0.177456
1.257725,-0.573058,0.169049
1.252681,-0.569919,0.159822
1.260242,-0.574625,0.152327
1.261014,-0.575105,0.143896
1.261742,-0.575558,0.135460
1.262425,-0.575984,0.127018
1.263065,-0.576382,0.118572
1.263661,-0.576752,0.110121
1.258285,-0.573407,0.101151
1.254555,-0.571086,0.092398
1.255014,-0.571372,0.084009
1.255430,-0.571630,0.075617
1.258346,-0.573445,0.067370
1.258675,-0.573650,0.058954
1.258960,-0.573827,0.050536
1.256656,-0.572393,0.042024
1.256853,-0.572516,0.033621
1.257006,-0.572611,0.025217
1.257965,-0.573208,0.016824
1.259444,-0.577271,0.247098
1.245669,-0.568661,0.235585
1.246873,-0.569414,0.227250
1.248034,-0.570139,0.218907
1.249989,-0.571362,0.210707
1.251064,-0.572033,0.202341
1.252095,-0.572678,0.193968
1.253082,-0.573295,0.185587
1.254026,-0.573885,0.177199
1.256610,-0.575499,0.169049
1.260836,-0.578141,0.161101
1.261653,-0.578651,0.152658
1.262425,-0.579134,0.144208
1.259778,-0.577479,0.135362
1.260460,-0.577906,0.126926
1.261099,-0.578305,0.118486
1.255776,-0.574978,0.109484
1.261398,-0.578492,0.101519
1.256828,-0.575636,0.092668
1.255595,-0.574865,0.084132
1.256011,-0.575125,0.075728
1.256383,-0.575358,0.067321
1.255017,-0.574504,0.058825
1.255302,-0.574682,0.050426
1.259780,-0.577481,0.042178
1.255739,-0.574955,0.033621
1.260131,-0.577700,0.025309
1.260241,-0.577769,0.016873
1.260307,-0.577810,0.008437
1.257488,-0.579192,0.246921
1.252073,-0.575793,0.237124
1.253284,-0.576553,0.228734
1.254450,-0.577286,0.220336
1.252226,-0.575889,0.211319
1.254140,-0.577091,0.203075
1.255173,-0.577740,0.194671
1.256163,-0.578361,0.186260
1.252910,-0.576319,0.177199
1.253809,-0.576883,0.168804
1.254664,-0.577420,0.160403
1.255476,-0.577929,0.151996
1.256244,-0.578412,0.143584
1.256968,-0.578866,0.135166
1.257649,-0.579293,0.126742
1.259973,-0.580753,0.118486
1.262256,-0.582185,0.110201
1.262806,-0.582531,0.101740
1.261623,-0.581788,0.093140
1.262085,-0.582078,0.084684
1.264194,-0.583402,0.076335
1.262877,-0.582576,0.067762
1.263207,-0.582783,0.059298
1.263494,-0.582962,0.050831
1.259503,-0.580457,0.042209
1.259700,-0.580581,0.033769
1.254773,-0.577488,0.025217
1.254882,-0.577557,0.016812
1.262542,-0.585530,0.256988
1.251365,-0.578484,0.245859
1.252620,-0.579274,0.237466
1.253830,-0.580038,0.229064
1.249987,-0.577614,0.219701
1.251105,-0.578320,0.211319
1.252180,-0.578997,0.202928
1.253212,-0.579648,0.194530
1.248332,-0.576571,0.185183
1.249272,-0.577164,0.176813
1.251007,-0.578258,0.168560
1.255192,-0.580896,0.152107
1.255960,-0.581380,0.143688
1.259209,-0.583429,0.135558
1.257364,-0.582265,0.126834
1.254629,-0.580541,0.118057
1.254377,-0.580382,0.109563
1.254924,-0.580727,0.101151
1.255427,-0.581044,0.092735
1.255042,-0.580802,0.084255
1.264749,-0.586921,0.076445
1.265123,-0.587157,0.067959
1.257848,-0.582570,0.059083
1.258133,-0.582750,0.050647
1.258373,-0.582902,0.042209
1.256034,-0.581427,0.033695
1.256187,-0.581523,0.025272
1.258834,-0.583192,0.016886
1.258899,-0.583233,0.008443
1.256419,-0.584825,0.255890
1.249408,-0.580386,0.245682
1.239838,-0.574327,0.235073
1.241035,-0.575085,0.226756
1.242189,-0.575815,0.218430
1.257495,-0.585506,0.212694
1.257365,-0.585424,0.178227
1.258267,-0.585995,0.169784
1.259126,-0.586538,0.161334
1.259940,-0.587054,0.152878
1.260711,-0.587542,0.144417
1.260597,-0.587470,0.135852
1.261279,-0.587902,0.127386
1.258550,-0.586174,0.118572
1.256616,-0.584950,0.109882
1.257164,-0.585297,0.101446
1.256825,-0.585082,0.092938
1.255599,-0.584305,0.084377
1.255171,-0.584034,0.075893
1.253854,-0.583201,0.067370
1.255870,-0.584477,0.059040
1.251088,-0.581450,0.050389
1.249639,-0.580532,0.041932
1.247301,-0.579051,0.033474
1.247452,-0.579148,0.025107
1.247561,-0.579216,0.016738
1.252695,-0.582467,0.008406
1.259906,-0.590204,0.248160
1.256181,-0.587835,0.238663
1.254065,-0.586490,0.229559
1.255232,-0.587232,0.221131
1.250518,-0.584234,0.211624
1.249922,-0.583856,0.202928
1.249280,-0.583447,0.194249
1.250264,-0.584073,0.185856
1.251205,-0.584671,0.177456
1.252940,-0.585774,0.169172
1.256308,-0.587916,0.161101
1.257120,-0.588433,0.152658
1.255371,-0.587320,0.143896
1.256094,-0.587780,0.135460
1.256774,-0.588212,0.127018
1.257410,-0.588617,0.118572
1.257161,-0.588458,0.110041
1.257708,-0.588807,0.101593
1.263264,-0.592339,0.093545
1.251935,-0.585135,0.084193
1.250664,-0.584327,0.075673
1.251034,-0.584563,0.067272
1.251361,-0.584770,0.058868
1.251644,-0.584950,0.050463
1.251883,-0.585102,0.042055
1.252079,-0.585227,0.033646
1.252232,-0.585324,0.025236
1.252340,-0.585393,0.016824
1.255781,-0.587581,0.008437
1.256647,-0.588132,0.000000
1.253310,-0.589170,0.255707
1.253781,-0.589471,0.247098
1.252546,-0.588682,0.238150
1.253756,-0.589455,0.229724
1.252425,-0.588605,0.220813
1.252713,-0.588789,0.212235
1.254622,-0.590008,0.203955
1.255655,-0.590668,0.195515
1.255809,-0.590766,0.186933
1.256754,-0.591370,0.178484
1.258492,-0.592479,0.170151
1.256001,-0.590889,0.161218
1.256813,-0.591407,0.152768
1.257581,-0.591898,0.144313
1.258306,-0.592361,0.135852
1.258986,-0.592795,0.127386
1.257104,-0.591593,0.118658
1.256016,-0.590898,0.110041
1.251520,-0.588027,0.101151
1.252021,-0.588347,0.092735
1.251638,-0.588102,0.084255
1.252052,-0.588367,0.075838
1.253264,-0.589141,0.067468
1.256959,-0.591501,0.059212
1.253032,-0.588993,0.050573
1.253272,-0.589146,0.042147
1.248413,-0.586043,0.033572
1.248565,-0.586140,0.025180
1.248673,-0.586209,0.016787
1.251267,-0.587865,0.008412
1.251288,-0.587879,0.000000
1.255481,-0.590557,-0.008443
1.254127,-0.592862,0.264885
1.255474,-0.593726,0.256439
1.256776,-0.594561,0.247983
1.258865,-0.595900,0.239689
1.260081,-0.596680,0.231208
1.261253,-0.597432,0.222719
1.253231,-0.592287,0.212541
1.254307,-0.592977,0.204102
1.254506,-0.593105,0.195515
1.255494,-0.593738,0.187067
1.253099,-0.592203,0.178098
1.253162,-0.592243,0.169539
1.253179,-0.592254,0.160985
1.253989,-0.592773,0.152548
1.254755,-0.593265,0.144104
1.250451,-0.590505,0.135068
1.251966,-0.591476,0.126742
1.252598,-0.591882,0.118314
1.253188,-0.592260,0.109882
1.253734,-0.592610,0.101446
1.254236,-0.592932,0.093005
1.254694,-0.593226,0.084561
1.253428,-0.592414,0.076004
1.249595,-0.589956,0.067321
1.249921,-0.590165,0.058911
1.246839,-0.588188,0.050352
1.249602,-0.589960,0.042055
1.249797,-0.590085,0.033646
1.249949,-0.590182,0.025236
1.250058,-0.590252,0.016824
1.260224,-0.596772,0.008486
1.260246,-0.596786,0.000000
1.256289,-0.597396,0.265641
1.251025,-0.594006,0.255707
1.251495,-0.594308,0.247098
1.253577,-0.595649,0.238834
1.253958,-0.595894,0.230219
1.255123,-0.596645,0.221766
1.256246,-0.597368,0.213305
1.258156,-0.598598,0.204982
1.254197,-0.596048,0.195656
1.253518,-0.595611,0.186933
1.252793,-0.595144,0.178227
1.253691,-0.595722,0.169784
1.254545,-0.596272,0.161334
1.255356,-0.596794,0.152878
1.252778,-0.595134,0.144000
1.250989,-0.593982,0.135264
1.249991,-0.593339,0.126651
1.248947,-0.592667,0.118057
1.249534,-0.593045,0.109643
1.251755,-0.594475,0.101372
1.250579,-0.593718,0.092803
1.251036,-0.594012,0.084377
1.252289,-0.594819,0.076004
1.250140,-0.593435,0.067419
1.250466,-0.593645,0.058997
1.253269,-0.595450,0.050684
1.253509,-0.595605,0.042239
1.249502,-0.593025,0.033671
1.248814,-0.592581,0.025236
1.248922,-0.592651,0.016824
1.248987,-0.592693,0.008412
1.249009,-0.592707,0.000000
1.249828,-0.593234,-0.008418
1.253126,-0.595358,-0.016886
1.252653,-0.598234,0.265074
1.253172,-0.598569,0.256439
1.251992,-0.597806,0.247452
1.249108,-0.595941,0.238150
1.252798,-0.598328,0.230219
1.253963,-0.599081,0.221766
1.255083,-0.599806,0.213305
1.256160,-0.600502,0.204836
1.258857,-0.602246,0.196640
1.259848,-0.602887,0.188144
1.252468,-0.598114,0.178355
1.254219,-0.599247,0.161450
1.254194,-0.599231,0.152878
1.252455,-0.598106,0.144104
1.253176,-0.598572,0.135656
1.251344,-0.597387,0.126926
1.251977,-0.597796,0.118486
1.252565,-0.598177,0.110041
1.252273,-0.597988,0.101519
1.251099,-0.597229,0.092938
1.251556,-0.597524,0.084500
1.251970,-0.597792,0.076059
1.252340,-0.598031,0.067615
1.252666,-0.598242,0.059169
1.252949,-0.598426,0.050720
1.253189,-0.598580,0.042270
1.252546,-0.598164,0.033793
1.252698,-0.598263,0.025346
1.252807,-0.598333,0.016898
1.252032,-0.597832,0.008443
1.252054,-0.597846,0.000000
1.256231,-0.600548,-0.008474
1.262882,-0.604850,-0.017045
1.249842,-0.599595,0.264696
1.251183,-0.600466,0.256256
1.250829,-0.600236,0.247452
1.252080,-0.601049,0.239005
1.254115,-0.602371,0.230713
1.255281,-0.603128,0.222243
1.248944,-0.599012,0.212388
1.250015,-0.599707,0.203955
1.249382,-0.599296,0.195234
1.249534,-0.599395,0.186663
1.250473,-0.600005,0.178227
1.251368,-0.600586,0.169784
1.248888,-0.598976,0.160869
1.248028,-0.598416,0.152217
1.248789,-0.598911,0.143792
1.250182,-0.599816,0.126926
1.249978,-0.599683,0.118400
1.249730,-0.599522,0.109882
1.250273,-0.599875,0.101446
1.249937,-0.599657,0.092938
1.250394,-0.599953,0.084500
1.250807,-0.600222,0.076059
1.257039,-0.604270,0.067959
1.255692,-0.603395,0.059384
1.255975,-0.603579,0.050904
1.256215,-0.603735,0.042423
1.250543,-0.600051,0.033769
1.250695,-0.600149,0.025328
1.245773,-0.596952,0.016812
1.245838,-0.596994,0.008406
1.246698,-0.597553,0.000000
1.252546,-0.601352,-0.008455
1.254158,-0.602399,-0.016935
1.259080,-0.605596,-0.025512
1.252788,-0.604703,0.265641
1.253308,-0.605043,0.256988
1.253783,-0.605352,0.248337
1.255037,-0.606170,0.239860
1.250465,-0.603188,0.230219
1.251627,-0.603946,0.221766
1.251917,-0.604135,0.213152
1.252162,-0.604295,0.204542
1.250704,-0.603344,0.195656
1.251688,-0.603986,0.187202
1.250136,-0.602974,0.178355
1.246875,-0.600846,0.169294
1.246891,-0.600857,0.160752
1.247696,-0.601382,0.152327
1.248457,-0.601878,0.143896
1.249175,-0.602346,0.135460
1.249849,-0.602786,0.127018
1.250480,-0.603198,0.118572
1.248563,-0.601947,0.109882
1.249106,-0.602302,0.101446
1.249606,-0.602628,0.093005
1.250062,-0.602925,0.084561
1.250475,-0.603195,0.076114
1.250844,-0.603436,0.067664
1.251171,-0.603648,0.059212
1.251453,-0.603833,0.050757
1.251692,-0.603989,0.042301
1.255237,-0.606301,0.033941
1.257064,-0.607493,0.025493
1.257174,-0.607564,0.016996
1.253052,-0.604875,0.008468
1.253911,-0.605436,0.000000
1.253052,-0.604875,-0.008468
1.252986,-0.604833,-0.016935
1.253715,-0.605308,-0.025420
1.255149,-0.609452,0.275272
1.255718,-0.609825,0.266587
1.248841,-0.605320,0.256256
1.250135,-0.606167,0.247806
1.248913,-0.605367,0.238834
1.252592,-0.607777,0.230878
1.254875,-0.609273,0.213916
1.252641,-0.607809,0.204836
1.253671,-0.608484,0.196359
1.251341,-0.606958,0.187336
1.250622,-0.606487,0.178612
1.248196,-0.604897,0.169661
1.246553,-0.603821,0.160869
1.247357,-0.604348,0.152437
1.249782,-0.605936,0.144208
1.250500,-0.606407,0.135754
1.253674,-0.608486,0.127570
1.254307,-0.608901,0.119087
1.259899,-0.612564,0.111077
1.255442,-0.609644,0.102108
1.255110,-0.609427,0.093545
1.249724,-0.605898,0.084623
1.250137,-0.606169,0.076169
1.250506,-0.606411,0.067713
1.250832,-0.606624,0.059255
1.246935,-0.604071,0.050610
1.247173,-0.604227,0.042178
1.244023,-0.602163,0.033646
1.244174,-0.602262,0.025236
1.250973,-0.606717,0.016922
1.252711,-0.607855,0.008474
1.252733,-0.607869,0.000000
1.252711,-0.607855,-0.008474
1.255155,-0.609456,-0.016984
1.255046,-0.609385,-0.025475
1.254894,-0.609285,-0.033965
1.249306,-0.608824,0.256622
1.249381,-0.608874,0.239176
1.246465,-0.606956,0.229889
1.247622,-0.607717,0.221448
1.252864,-0.611165,0.213763
1.244021,-0.605348,0.203515
1.250006,-0.609285,0.195937
1.250988,-0.609931,0.187471
1.246957,-0.607279,0.178227
1.246190,-0.606775,0.169539
1.247038,-0.607332,0.161101
1.247012,-0.607315,0.152548
1.247772,-0.607815,0.144104
1.248489,-0.608287,0.135656
1.249163,-0.608730,0.127202
1.249793,-0.609145,0.118743
1.250380,-0.609531,0.110280
1.250090,-0.609340,0.101740
1.248923,-0.608572,0.093140
1.251047,-0.609969,0.084807
1.249792,-0.609144,0.076225
1.250161,-0.609386,0.067762
1.248817,-0.608503,0.059212
1.254108,-0.611983,0.050978
1.249337,-0.608845,0.042301
1.253708,-0.611720,0.033965
1.250520,-0.609623,0.025401
1.250628,-0.609694,0.016935
1.250693,-0.609737,0.008468
1.254057,-0.611950,0.000000
1.263224,-0.617981,-0.008560
1.263158,-0.617937,-0.017119
1.251702,-0.613614,0.266209
1.250582,-0.612875,0.257171
1.248593,-0.611560,0.247983
1.246552,-0.610212,0.238834
1.237055,-0.603938,0.228240
1.238202,-0.604696,0.219860
1.239306,-0.605425,0.211471
1.240368,-0.606126,0.203075
1.241386,-0.606799,0.194671
1.252282,-0.613998,0.187875
1.244120,-0.608605,0.177970
1.244182,-0.608646,0.169416
1.245027,-0.609205,0.160985
1.245830,-0.609735,0.152548
1.246589,-0.610237,0.144104
1.247306,-0.610710,0.135656
1.250471,-0.612801,0.127478
1.250237,-0.612646,0.093342
1.246529,-0.610197,0.084561
1.251106,-0.613220,0.076390
1.251475,-0.613464,0.067910
1.252635,-0.614230,0.059469
1.253751,-0.614968,0.051015
1.253991,-0.615126,0.042515
1.253352,-0.614705,0.033990
1.254339,-0.615356,0.025512
1.251110,-0.613223,0.016959
1.251176,-0.613267,0.008480
1.251197,-0.613281,0.000000
1.249507,-0.612164,-0.008468
1.249442,-0.612121,-0.016935
1.250168,-0.612601,-0.025420
1.250016,-0.612500,-0.033891
1.250760,-0.616211,0.275077
1.252145,-0.617129,0.266587
1.248571,-0.614758,0.256988
1.235101,-0.605822,0.245328
1.236334,-0.606640,0.236953
1.233415,-0.604703,0.227745
1.234558,-0.605461,0.219383
1.235658,-0.606191,0.211013
1.242485,-0.610721,0.203662
1.249280,-0.615229,0.196218
1.250262,-0.615880,0.187740
1.251200,-0.616503,0.179255
1.252095,-0.617096,0.170763
1.252946,-0.617661,0.162264
1.245472,-0.612702,0.152658
1.250375,-0.615955,0.144729
1.246947,-0.613681,0.135754
1.247619,-0.614127,0.127294
1.249079,-0.615095,0.118915
1.250496,-0.616035,0.110520
1.251039,-0.616396,0.102034
1.251539,-0.616727,0.093545
1.251164,-0.616479,0.084991
1.244089,-0.611784,0.076004
1.244456,-0.612028,0.067566
1.244779,-0.612243,0.059126
1.249224,-0.615191,0.050868
1.249462,-0.615350,0.042393
1.254655,-0.618795,0.034063
1.254808,-0.618896,0.025549
1.254917,-0.618968,0.017033
1.254982,-0.619012,0.008517
1.255004,-0.619026,0.000000
1.246649,-0.613483,-0.008455
1.246585,-0.613440,-0.016910
1.246476,-0.613369,-0.025364
1.246325,-0.613268,-0.033818
1.252010,-0.620270,0.275663
1.253396,-0.621193,0.267154
1.249011,-0.618272,0.257354
1.246208,-0.616404,0.247983
1.247453,-0.617234,0.239518
1.239626,-0.612018,0.229229
1.240775,-0.612784,0.220813
1.241881,-0.613521,0.212388
1.246236,-0.616423,0.204542
1.247259,-0.617104,0.196078
1.249175,-0.618381,0.179126
1.249242,-0.618426,0.170518
1.245959,-0.616238,0.161450
1.250897,-0.619528,0.153540
1.247521,-0.617279,0.144521
1.248237,-0.617756,0.136048
1.248910,-0.618204,0.127570
1.249540,-0.618624,0.119087
1.250127,-0.619015,0.110599
1.250670,-0.619377,0.102108
1.251169,-0.619710,0.093612
1.249964,-0.618907,0.084991
1.247053,-0.616967,0.076280
1.247421,-0.617212,0.067812
1.247746,-0.617428,0.059341
1.248027,-0.617616,0.050868
1.254920,-0.622208,0.042638
1.255116,-0.622339,0.034112
1.246115,-0.616342,0.025383
1.242895,-0.614196,0.016873
1.242959,-0.614240,0.008437
1.242981,-0.614254,0.000000
1.244624,-0.615348,-0.008449
1.245391,-0.615860,-0.016910
1.248611,-0.618005,-0.025438
1.248460,-0.617904,-0.033916
1.252424,-0.620546,-0.042546
1.247169,-0.620594,0.266020
1.240334,-0.616019,0.255707
1.241616,-0.616877,0.247275
1.242855,-0.617707,0.238834
1.240773,-0.616313,0.229724
1.241923,-0.617083,0.221289
1.247957,-0.621122,0.213763
1.240806,-0.616335,0.203809
1.246760,-0.620320,0.196218
1.253503,-0.624834,0.188682
1.248674,-0.621602,0.179255
1.243793,-0.618335,0.169906
1.250416,-0.622768,0.162264
1.248678,-0.621604,0.144833
1.249395,-0.622084,0.136342
1.259998,-0.629182,0.128948
1.250699,-0.622957,0.119344
1.250457,-0.622795,0.110759
1.251000,-0.623159,0.102255
1.250671,-0.622938,0.093680
1.251127,-0.623243,0.085175
1.251539,-0.623520,0.076666
1.249418,-0.622100,0.068008
1.249744,-0.622318,0.059512
1.250025,-0.622506,0.051015
1.248603,-0.621554,0.042454
1.248797,-0.621684,0.033965
1.248949,-0.621786,0.025475
1.245733,-0.619633,0.016935
1.245798,-0.619677,0.008468
1.247482,-0.620804,0.000000
1.247460,-0.620789,-0.008480
1.247395,-0.620746,-0.016959
1.247287,-0.620673,-0.025438
1.244644,-0.618904,-0.033842
1.244449,-0.618774,-0.042301
1.246704,-0.620283,-0.050868
1.247732,-0.624496,0.275272
1.242593,-0.621040,0.265263
1.241475,-0.620288,0.256256
1.238674,-0.618405,0.246921
1.239910,-0.619236,0.238492
1.244377,-0.622240,0.230713
1.244711,-0.622464,0.222084
1.246640,-0.623762,0.213763
1.247707,-0.624479,0.205276
1.248731,-0.625167,0.196781
1.248889,-0.625273,0.188144
1.244887,-0.622583,0.178869
1.245777,-0.623181,0.170396
1.246623,-0.623750,0.161916
1.251549,-0.627062,0.153980
1.255613,-0.629795,0.145874
1.256334,-0.630280,0.137322
1.257011,-0.630735,0.128764
1.251858,-0.627270,0.119601
1.250791,-0.626552,0.110918
1.250506,-0.626361,0.102328
1.251833,-0.627254,0.093882
1.251462,-0.627003,0.085297
1.250217,-0.626167,0.076666
1.252243,-0.627529,0.068253
1.253398,-0.628306,0.059770
1.251193,-0.626823,0.051125
1.245626,-0.623079,0.042393
1.245820,-0.623210,0.033916
1.245971,-0.623312,0.025438
1.246079,-0.623384,0.016959
1.246144,-0.623428,0.008480
1.245335,-0.622884,0.000000
1.244484,-0.622312,-0.008468
1.244419,-0.622268,-0.016935
1.244312,-0.622196,-0.025401
1.244161,-0.622094,-0.033867
1.245626,-0.623079,-0.042393
1.248705,-0.625150,-0.051015
1.243349,-0.625105,0.283356
1.242330,-0.624417,0.274297
1.243703,-0.625345,0.265831
1.241775,-0.624042,0.256622
1.243058,-0.624909,0.248160
1.244298,-0.625746,0.239689
1.245496,-0.626555,0.231208
1.246650,-0.627335,0.222719
1.242028,-0.624213,0.213152
1.243090,-0.624930,0.204689
1.246571,-0.627281,0.196640
1.250012,-0.629606,0.188548
1.248484,-0.628574,0.179640
1.249376,-0.629176,0.171130
1.250224,-0.629749,0.162613
1.246911,-0.627512,0.153540
1.245198,-0.626354,0.144729
1.245912,-0.626837,0.136244
1.246583,-0.627290,0.127753
1.247211,-0.627714,0.119258
1.247796,-0.628109,0.110759
1.248338,-0.628475,0.102255
1.247182,-0.627695,0.093612
1.248048,-0.628279,0.076611
1.243450,-0.625173,0.067812
1.243773,-0.625392,0.059341
1.249022,-0.628937,0.051088
1.244291,-0.625741,0.042393
1.241999,-0.624193,0.033842
1.246292,-0.627093,0.025475
1.246400,-0.627166,0.016984
1.246465,-0.627210,0.008492
1.246487,-0.627225,0.000000
1.246465,-0.627210,-0.008492
1.248886,-0.628846,-0.017021
1.248778,-0.628772,-0.025530
1.249455,-0.629230,-0.034063
1.249260,-0.629098,-0.042577
1.253162,-0.631734,-0.051272
1.252880,-0.631543,-0.059813
1.239369,-0.625970,0.273907
1.240739,-0.626899,0.265452
1.245319,-0.630008,0.257720
1.246606,-0.630881,0.249222
1.247849,-0.631725,0.240714
1.249050,-0.632540,0.232198
1.250207,-0.633325,0.223672
1.251321,-0.634081,0.215138
1.246662,-0.630919,0.205569
1.247684,-0.631613,0.197062
1.247843,-0.631721,0.188413
1.248778,-0.632355,0.179897
1.248849,-0.632403,0.171253
1.248875,-0.632421,0.162613
1.250501,-0.633525,0.154201
1.251263,-0.634041,0.145666
1.251980,-0.634529,0.137126
1.250183,-0.633309,0.128305
1.250813,-0.633736,0.119773
1.248925,-0.632455,0.110998
1.245341,-0.630023,0.102108
1.244187,-0.629239,0.093477
1.242988,-0.628426,0.084868
1.242571,-0.628143,0.076335
1.243763,-0.628952,0.067910
1.245740,-0.630294,0.059512
1.248501,-0.632167,0.051125
1.248739,-0.632329,0.042607
1.248934,-0.632461,0.034088
1.243294,-0.628634,0.025438
1.243402,-0.628707,0.016959
1.241812,-0.627627,0.008468
1.243488,-0.628765,0.000000
1.245121,-0.629874,-0.008492
1.253330,-0.635445,-0.017107
1.244949,-0.629757,-0.025475
1.244798,-0.629654,-0.033965
1.244604,-0.629523,-0.042454
1.244367,-0.629362,-0.050941
1.244087,-0.629171,-0.059427
1.243014,-0.631689,0.275077
1.244388,-0.632625,0.266587
1.245718,-0.633532,0.258086
1.241312,-0.630529,0.248337
1.242550,-0.631372,0.239860
1.260045,-0.643295,0.234671
1.248159,-0.635195,0.223513
1.248454,-0.635396,0.214833
1.249522,-0.636124,0.206303
1.250546,-0.636822,0.197765
1.249890,-0.636375,0.188951
1.250826,-0.637013,0.180411
1.250079,-0.636504,0.171620
1.252569,-0.638201,0.163311
1.253375,-0.638750,0.154752
1.254138,-0.639270,0.146187
1.246634,-0.634156,0.136636
1.245660,-0.633492,0.127937
1.242170,-0.631114,0.119001
1.240281,-0.629826,0.110280
1.240819,-0.630193,0.101813
1.240489,-0.629968,0.093275
1.239291,-0.629152,0.084684
1.241349,-0.630554,0.076335
1.241714,-0.630803,0.067861
1.242037,-0.631023,0.059384
1.243142,-0.631777,0.050941
1.243379,-0.631938,0.042454
1.238616,-0.628692,0.033818
1.238766,-0.628794,0.025364
1.238874,-0.628867,0.016910
1.238938,-0.628911,0.008455
1.238959,-0.628926,0.000000
1.242243,-0.631164,-0.008480
1.242179,-0.631120,-0.016959
1.245376,-0.633299,-0.025512
1.243573,-0.632070,-0.033965
1.245031,-0.633064,-0.042515
1.247272,-0.634590,-0.051125
1.248642,-0.635524,-0.059727
1.242595,-0.634656,0.275272
1.243157,-0.635040,0.266587
1.244485,-0.635949,0.258086
1.245771,-0.636829,0.249576
1.247013,-0.637679,0.241056
1.246584,-0.637385,0.232198
1.247738,-0.638175,0.223672
1.244771,-0.636145,0.214374
1.245836,-0.636873,0.205863
1.246856,-0.637572,0.197344
1.247834,-0.638241,0.188817
1.245495,-0.636640,0.179769
1.246384,-0.637248,0.171253
1.247229,-0.637827,0.162730
1.246391,-0.637253,0.153980
1.248791,-0.638896,0.145666
1.254288,-0.642658,0.129040
1.249987,-0.639714,0.119945
1.250573,-0.640115,0.111396
1.251115,-0.640486,0.102843
1.256554,-0.644208,0.094691
1.245480,-0.636630,0.085236
1.245890,-0.636911,0.076721
1.251203,-0.640546,0.068498
1.251528,-0.640769,0.059942
1.246862,-0.637575,0.051162
1.244625,-0.636044,0.042546
1.243168,-0.635048,0.033990
1.243319,-0.635151,0.025493
1.239301,-0.632401,0.016935
1.241841,-0.634139,0.008486
1.241862,-0.634154,0.000000
1.242666,-0.634704,-0.008492
1.242601,-0.634660,-0.016984
1.242494,-0.634586,-0.025475
1.242343,-0.634483,-0.033965
1.242975,-0.634915,-0.042485
1.241913,-0.634189,-0.050941
1.241634,-0.633998,-0.059427
1.249554,-0.639418,-0.068400
1.248396,-0.641902,0.268099
1.240007,-0.636137,0.257354
1.241287,-0.637017,0.248868
1.242524,-0.637867,0.240372
1.243718,-0.638688,0.231868
1.244869,-0.639479,0.223355
1.245977,-0.640240,0.214833
1.247042,-0.640972,0.206303
1.248064,-0.641674,0.197765
1.249043,-0.642346,0.189220
1.249978,-0.642989,0.180668
1.244326,-0.639105,0.171130
1.245170,-0.639685,0.162613
1.245971,-0.640235,0.154091
1.246728,-0.640756,0.145562
1.241933,-0.637461,0.110679
1.240828,-0.636701,0.102034
1.242967,-0.638171,0.093680
1.241774,-0.637351,0.085052
1.242183,-0.637632,0.076556
1.240079,-0.636186,0.067910
1.240401,-0.636408,0.059427
1.240680,-0.636599,0.050941
1.240916,-0.636762,0.042454
1.241109,-0.636894,0.033965
1.242083,-0.637564,0.025493
1.242191,-0.637638,0.016996
1.243904,-0.638815,0.008510
1.252167,-0.644493,0.000000
1.252080,-0.644433,-0.017143
1.251148,-0.643793,-0.025696
1.250996,-0.643689,-0.034260
1.248330,-0.641856,-0.042730
1.248092,-0.641693,-0.051272
1.247811,-0.641500,-0.059813
1.245531,-0.643209,0.267721
1.243625,-0.641894,0.258452
1.241668,-0.640544,0.249222
1.242094,-0.640838,0.240543
1.244099,-0.642222,0.232198
1.248501,-0.645259,0.224308
1.246359,-0.643781,0.215138
1.244981,-0.642830,0.206156
1.243556,-0.641847,0.197203
1.244531,-0.642519,0.188682
1.243013,-0.641472,0.179769
1.239815,-0.639265,0.170640
1.240656,-0.639845,0.162148
1.241453,-0.640395,0.153650
1.239752,-0.639221,0.144833
1.241281,-0.640277,0.136440
1.241129,-0.640172,0.127845
1.236833,-0.637207,0.118829
1.239873,-0.639305,0.110599
1.240410,-0.639676,0.102108
1.238441,-0.638317,0.093410
1.238891,-0.638627,0.084929
1.239299,-0.638909,0.076445
1.239663,-0.639160,0.067959
1.239985,-0.639382,0.059469
1.240264,-0.639575,0.050978
1.243791,-0.642008,0.042607
1.243984,-0.642142,0.034088
1.248249,-0.645085,0.025659
1.241015,-0.640093,0.008498
1.241036,-0.640108,0.000000
1.241015,-0.640093,-0.008498
1.240950,-0.640049,-0.016996
1.244135,-0.642246,-0.025567
1.243984,-0.642142,-0.034088
1.248727,-0.645414,-0.042791
1.248489,-0.645250,-0.051346
1.248208,-0.645057,-0.059899
1.246431,-0.647080,0.259368
1.247717,-0.647971,0.250815
1.248960,-0.648833,0.242253
1.250161,-0.649664,0.233682
1.243202,-0.644843,0.223513
1.244308,-0.645609,0.214986
1.247810,-0.648036,0.206890
1.246391,-0.647052,0.197906
1.242480,-0.644343,0.188548
1.250746,-0.650070,0.181182
1.250822,-0.650123,0.172477
1.238608,-0.641660,0.162032
1.241855,-0.643910,0.153870
1.242610,-0.644433,0.145354
1.240867,-0.643225,0.136538
1.241534,-0.643687,0.128029
1.239702,-0.642418,0.119258
1.240282,-0.642820,0.110759
1.240819,-0.643192,0.102255
1.246234,-0.646944,0.094152
1.242585,-0.644416,0.085297
1.244635,-0.645836,0.076887
1.245002,-0.646090,0.068351
1.244504,-0.645745,0.059770
1.243962,-0.645370,0.051199
1.245020,-0.646103,0.042699
1.244393,-0.645668,0.034137
1.244543,-0.645772,0.025604
1.244651,-0.645847,0.017070
1.241428,-0.643613,0.008510
1.241449,-0.643628,0.000000
1.241428,-0.643613,-0.008510
1.240541,-0.642999,-0.017008
1.241256,-0.643494,-0.025530
1.242749,-0.644529,-0.034088
1.244199,-0.645534,-0.042669
1.250533,-0.649923,-0.051493
1.254358,-0.652573,-0.060285
1.245979,-0.650060,0.259551
1.240801,-0.646458,0.249576
1.242037,-0.647318,0.241056
1.243230,-0.648148,0.232527
1.244379,-0.648947,0.223990
1.246921,-0.650716,0.189490
1.247853,-0.651365,0.180925
1.245484,-0.649716,0.171865
1.238991,-0.645198,0.162264
1.239787,-0.645752,0.153760
1.240540,-0.646276,0.145250
1.241250,-0.646770,0.136734
1.241917,-0.647234,0.128213
1.239270,-0.645393,0.119344
1.239850,-0.645796,0.110838
1.244156,-0.648792,0.094084
1.244609,-0.649107,0.085542
1.245018,-0.649392,0.076997
1.251124,-0.653640,0.068793
1.245708,-0.649872,0.059899
1.245168,-0.649496,0.051309
1.244584,-0.649090,0.042730
1.238213,-0.644657,0.033990
1.238363,-0.644761,0.025493
1.240932,-0.646549,0.017033
1.237713,-0.644309,0.008492
1.237734,-0.644324,0.000000
1.240996,-0.646594,-0.008517
1.240932,-0.646549,-0.017033
1.244928,-0.649330,-0.025641
1.244778,-0.649225,-0.034186
1.244584,-0.649090,-0.042730
1.244347,-0.648925,-0.051272
1.244068,-0.648731,-0.059813
1.243578,-0.651684,0.250461
1.244008,-0.651985,0.241740
1.242777,-0.651125,0.232692
1.243926,-0.651928,0.224149
1.240171,-0.649305,0.214680
1.234743,-0.645512,0.204982
1.235752,-0.646217,0.196500
1.236719,-0.646893,0.188009
1.237644,-0.647539,0.179512
1.238525,-0.648155,0.171008
1.237736,-0.647603,0.162264
1.244234,-0.652143,0.154532
1.244990,-0.652671,0.145979
1.235913,-0.646329,0.136244
1.236577,-0.646793,0.127753
1.238831,-0.648368,0.119430
1.236959,-0.647060,0.110679
1.237495,-0.647434,0.102181
1.240441,-0.649493,0.093882
1.240892,-0.649808,0.085358
1.237207,-0.647233,0.076556
1.244121,-0.652064,0.068449
1.244444,-0.652289,0.059899
1.248000,-0.654774,0.051493
1.248238,-0.654940,0.042914
1.248432,-0.655076,0.034333
1.241206,-0.650028,0.025585
1.241314,-0.650103,0.017057
1.241378,-0.650148,0.008529
1.241400,-0.650163,0.000000
1.240558,-0.649575,-0.008523
1.241314,-0.650103,-0.017057
1.241206,-0.650028,-0.025585
1.241056,-0.649923,-0.034112
1.239225,-0.648643,-0.042577
1.240627,-0.649623,-0.051162
1.246082,-0.653434,-0.059985
1.241504,-0.653533,0.250284
1.239514,-0.652136,0.241056
1.235859,-0.649572,0.231538
1.236192,-0.649806,0.222878
1.234863,-0.648874,0.213916
1.235916,-0.649612,0.205423
1.236116,-0.649753,0.196781
1.233839,-0.648155,0.187740
1.234760,-0.648801,0.179255
1.235640,-0.649418,0.170763
1.236476,-0.650005,0.162264
1.237270,-0.650562,0.153760
1.238835,-0.651660,0.145354
1.236285,-0.649871,0.136440
1.236949,-0.650337,0.127937
1.241648,-0.653633,0.119859
1.242229,-0.654041,0.111316
1.238684,-0.651554,0.102402
1.242444,-0.654192,0.094152
1.239627,-0.652216,0.085358
1.240035,-0.652502,0.076832
1.243670,-0.655052,0.068498
1.243993,-0.655278,0.059942
1.244272,-0.655474,0.051383
1.248600,-0.658511,0.042975
1.248794,-0.658647,0.034382
1.244853,-0.655882,0.025696
1.244961,-0.655957,0.017131
1.243388,-0.654854,0.008553
1.243409,-0.654869,0.000000
1.241751,-0.653705,-0.008541
1.243323,-0.654809,-0.017107
1.245521,-0.656350,-0.034284
1.245327,-0.656214,-0.042853
1.244256,-0.658776,0.251169
1.243078,-0.657946,0.242082
1.233789,-0.651402,0.231373
1.230892,-0.649362,0.222084
1.231985,-0.650132,0.213610
1.233035,-0.650872,0.205129
1.229187,-0.648160,0.195796
1.230148,-0.648837,0.187336
1.235931,-0.652911,0.179640
1.236810,-0.653531,0.171130
1.239271,-0.655264,0.162846
1.246266,-0.660192,0.129132
1.244449,-0.658912,0.120288
1.247476,-0.661044,0.111954
1.245570,-0.659701,0.103138
1.243619,-0.658327,0.094354
1.239991,-0.655771,0.085481
1.240398,-0.656058,0.076942
1.240763,-0.656315,0.068400
1.241084,-0.656542,0.059856
1.242180,-0.657314,0.051346
1.244051,-0.658631,0.042853
1.244244,-0.658767,0.034284
1.244394,-0.658873,0.025714
1.244502,-0.658949,0.017143
1.243749,-0.658419,0.008566
1.243770,-0.658434,0.000000
1.238026,-0.654387,-0.008523
1.237962,-0.654342,-0.017045
1.237855,-0.654267,-0.025567
1.239340,-0.655313,-0.034137
1.239148,-0.655177,-0.042669
1.238912,-0.655012,-0.051199
1.244600,-0.662340,0.233847
1.238496,-0.658022,0.223831
1.239595,-0.658800,0.215291
1.230154,-0.652122,0.204836
1.231159,-0.652833,0.196359
1.232121,-0.653514,0.187875
1.234661,-0.655310,0.179640
1.235539,-0.655931,0.171130
1.237997,-0.657670,0.162846
1.238791,-0.658231,0.154311
1.247662,-0.664507,0.146812
1.240252,-0.659264,0.137224
1.241730,-0.660311,0.128764
1.238287,-0.657875,0.119773
1.242935,-0.661162,0.111635
1.241030,-0.659815,0.102843
1.241524,-0.660164,0.094287
1.241975,-0.660483,0.085726
1.244013,-0.661925,0.077273
1.242748,-0.661030,0.068597
1.241439,-0.660104,0.059942
1.244981,-0.662610,0.051530
1.246033,-0.663354,0.042975
1.238882,-0.658296,0.034161
1.240664,-0.659556,0.025659
1.240771,-0.659632,0.017107
1.240835,-0.659677,0.008553
1.235142,-0.655650,0.000000
1.235121,-0.655635,-0.008510
1.235057,-0.655590,-0.017021
1.236583,-0.656669,-0.025567
1.234801,-0.655409,-0.034039
1.236241,-0.656428,-0.042607
1.235694,-0.659345,0.241056
1.234466,-0.658473,0.232033
1.235606,-0.659282,0.223513
1.236702,-0.660061,0.214986
1.240176,-0.662529,0.206890
1.235539,-0.659235,0.197344
1.236505,-0.659921,0.188817
1.234194,-0.658280,0.179769
1.235072,-0.658904,0.171253
1.235908,-0.659497,0.162730
1.236700,-0.660060,0.154201
1.241505,-0.663472,0.146187
1.242215,-0.663976,0.137616
1.241258,-0.663297,0.128856
1.238632,-0.661432,0.119945
1.240023,-0.662420,0.111476
1.240560,-0.662801,0.102917
1.241053,-0.663151,0.094354
1.241504,-0.663472,0.085788
1.245167,-0.666074,0.077439
1.247162,-0.667490,0.068940
1.247485,-0.667720,0.060328
1.242062,-0.663868,0.051456
1.243928,-0.665194,0.042945
1.242491,-0.664173,0.034309
1.238566,-0.661385,0.025641
1.238673,-0.661461,0.017094
1.238737,-0.661506,0.008547
1.237943,-0.660943,0.000000
1.237922,-0.660927,-0.008541
1.228890,-0.654513,-0.016947
1.228784,-0.654437,-0.025420
1.228636,-0.654332,-0.033891
1.243624,-0.668314,0.234177
1.244773,-0.669133,0.225579
1.234614,-0.661888,0.214833
1.235666,-0.662638,0.206303
1.234257,-0.661633,0.197344
1.235222,-0.662321,0.188817
1.236143,-0.662978,0.180283
1.237831,-0.664182,0.171865
1.237051,-0.663626,0.163079
1.239462,-0.665346,0.154752
1.240214,-0.665882,0.146187
1.242543,-0.667543,0.137812
1.240778,-0.666284,0.128948
1.243834,-0.668464,0.120631
1.244416,-0.668878,0.112034
1.244954,-0.669262,0.103432
1.244637,-0.669036,0.094759
1.245089,-0.669358,0.086156
1.238181,-0.664432,0.077053
1.238545,-0.664691,0.068498
1.238052,-0.664340,0.059899
1.238330,-0.664538,0.051346
1.241820,-0.667027,0.042914
1.242013,-0.667165,0.034333
1.238907,-0.664950,0.025677
1.244713,-0.669090,0.017205
1.239100,-0.665087,0.000000
1.239078,-0.665072,-0.008560
1.239014,-0.665026,-0.017119
1.238907,-0.664950,-0.025677
1.238758,-0.664843,-0.034235
1.235909,-0.666133,0.232857
1.237050,-0.666950,0.224308
1.233326,-0.664284,0.214833
1.234377,-0.665036,0.206303
1.241824,-0.670369,0.198891
1.243723,-0.671729,0.181696
1.244608,-0.672363,0.173089
1.242220,-0.670652,0.164009
1.243017,-0.671223,0.155413
1.238110,-0.667709,0.146083
1.236390,-0.666478,0.137224
1.239482,-0.668692,0.128948
1.240104,-0.669137,0.120374
1.239062,-0.668391,0.111635
1.239598,-0.668775,0.103064
1.241713,-0.670290,0.094624
1.242164,-0.670612,0.086033
1.240948,-0.669742,0.077329
1.237252,-0.667095,0.068498
1.243258,-0.671396,0.060242
1.237850,-0.667523,0.051383
1.238085,-0.667691,0.042822
1.238277,-0.667829,0.034260
1.234362,-0.665026,0.025604
1.234469,-0.665102,0.017070
1.234533,-0.665147,0.008535
1.232928,-0.663998,0.000000
1.233720,-0.664565,-0.008529
1.233656,-0.664520,-0.017057
1.233549,-0.664443,-0.025585
1.233401,-0.664337,-0.034112
1.240875,-0.672997,0.216514
1.241932,-0.673757,0.207917
1.241339,-0.673330,0.199031
1.247136,-0.677499,0.191239
1.237600,-0.670642,0.180925
1.238480,-0.671274,0.172354
1.238511,-0.671297,0.163660
1.240112,-0.672448,0.155193
1.240864,-0.672988,0.146603
1.240764,-0.672917,0.137910
1.244664,-0.675721,0.129684
1.245288,-0.676170,0.121060
1.244251,-0.675424,0.112273
1.244789,-0.675811,0.103652
1.245284,-0.676167,0.095028
1.245736,-0.676492,0.086401
1.239660,-0.672123,0.077329
1.240024,-0.672384,0.068744
1.239534,-0.672032,0.060114
1.239000,-0.671649,0.051493
1.237612,-0.670651,0.042853
1.236993,-0.670205,0.034260
1.233895,-0.667978,0.025622
1.234002,-0.668054,0.017082
1.234065,-0.668100,0.008541
1.234087,-0.668115,0.000000
1.234065,-0.668100,-0.008541
1.234002,-0.668054,-0.017082
1.229836,-0.665059,-0.025530
1.229688,-0.664953,-0.034039
1.229497,-0.664815,-0.042546
1.236866,-0.673456,0.224784
1.237963,-0.674248,0.216208
1.235008,-0.672114,0.206890
1.234410,-0.671682,0.198047
1.235374,-0.672378,0.189490
1.236295,-0.673043,0.180925
1.237174,-0.673678,0.172354
1.237205,-0.673700,0.163660
1.238804,-0.674854,0.155193
1.239554,-0.675396,0.146603
1.238649,-0.674742,0.137812
1.242542,-0.677554,0.129592
1.243746,-0.678423,0.112352
1.236198,-0.672973,0.102990
1.236689,-0.673327,0.094421
1.237137,-0.673651,0.085849
1.231876,-0.669853,0.076887
1.232237,-0.670114,0.068351
1.232556,-0.670344,0.059813
1.237694,-0.674053,0.051493
1.234687,-0.671882,0.042791
1.234879,-0.672021,0.034235
1.235028,-0.672128,0.025677
1.235134,-0.672205,0.017119
1.234387,-0.671666,0.008553
1.234408,-0.671681,0.000000
1.240652,-0.679550,0.216972
1.236904,-0.676833,0.207477
1.234707,-0.675240,0.198328
1.232462,-0.673612,0.189220
1.233380,-0.674279,0.180668
1.234257,-0.674914,0.172109
1.235090,-0.675518,0.163544
1.235882,-0.676092,0.154972
1.237435,-0.677218,0.146499
1.237336,-0.677146,0.137812
1.237999,-0.677627,0.129224
1.237813,-0.677492,0.120545
1.237584,-0.677326,0.111874
1.238118,-0.677713,0.103285
1.238610,-0.678070,0.094691
1.234210,-0.674880,0.085726
1.234615,-0.675174,0.077163
1.234977,-0.675436,0.068597
1.233679,-0.674495,0.059942
1.231528,-0.672936,0.051272
1.231762,-0.673105,0.042730
1.231953,-0.673244,0.034186
1.232101,-0.673351,0.025641
1.237065,-0.676950,0.017168
1.237129,-0.676996,0.008584
1.237150,-0.677011,0.000000
1.235510,-0.675822,-0.008572
1.235446,-0.675776,-0.017143
1.235339,-0.675699,-0.025714
1.235336,-0.679050,0.216208
1.236387,-0.679815,0.207624
1.236595,-0.679967,0.198891
1.235958,-0.679503,0.190028
1.235276,-0.679007,0.181182
1.231339,-0.676141,0.171865
1.232170,-0.676746,0.163311
1.232960,-0.677320,0.154752
1.233706,-0.677864,0.146187
1.236019,-0.679547,0.137812
1.236681,-0.680030,0.129224
1.237301,-0.680481,0.120631
1.236266,-0.679727,0.111874
1.238413,-0.681290,0.103432
1.237291,-0.680473,0.094691
1.234512,-0.678450,0.085849
1.231687,-0.676394,0.077053
1.229626,-0.674894,0.068351
1.229944,-0.675125,0.059813
1.230219,-0.675326,0.051272
1.235301,-0.679025,0.042914
1.237109,-0.680341,0.034382
1.237258,-0.680450,0.025788
1.237365,-0.680527,0.017192
1.239046,-0.681751,0.008609
1.239067,-0.681766,0.000000
1.235004,-0.678808,-0.008578
1.234131,-0.678173,-0.017143
1.234025,-0.678096,-0.025714
1.233876,-0.677988,-0.034284
1.237206,-0.683780,0.216819
1.233467,-0.681047,0.207330
1.234473,-0.681782,0.198750
1.235437,-0.682486,0.190163
1.236357,-0.683159,0.181568
1.245288,-0.689687,0.165405
1.234852,-0.682059,0.155193
1.235599,-0.682605,0.146603
1.233090,-0.680772,0.137616
1.232947,-0.680667,0.128948
1.233564,-0.681118,0.120374
1.234140,-0.681538,0.111794
1.234672,-0.681928,0.103211
1.235162,-0.682286,0.094624
1.236415,-0.683202,0.086094
1.231984,-0.679963,0.077163
1.233958,-0.681406,0.068695
1.238310,-0.684586,0.060328
1.235360,-0.682431,0.051567
1.234787,-0.682012,0.042945
1.234979,-0.682152,0.034358
1.235128,-0.682261,0.025769
1.229583,-0.678208,0.017094
1.229647,-0.678255,0.008547
1.229668,-0.678270,0.000000
1.232876,-0.680615,-0.008572
1.232812,-0.680568,-0.017143
1.235935,-0.682851,-0.025788
1.241712,-0.690464,0.209091
1.242725,-0.691207,0.200438
1.231712,-0.683125,0.189759
1.229432,-0.681452,0.180668
1.229504,-0.681505,0.171987
1.230334,-0.682114,0.163428
1.231121,-0.682691,0.154862
1.231866,-0.683238,0.146291
1.232569,-0.683753,0.137714
1.234834,-0.685416,0.129316
1.231436,-0.682923,0.120288
1.231207,-0.682754,0.111635
1.232542,-0.683734,0.103138
1.233031,-0.684093,0.094556
1.233477,-0.684420,0.085972
1.233881,-0.684717,0.077384
1.234243,-0.684982,0.068793
1.235367,-0.685807,0.060242
1.230810,-0.682463,0.051420
1.230237,-0.682043,0.042822
1.230428,-0.682183,0.034260
1.241162,-0.690060,0.017291
1.241226,-0.690107,0.008645
1.241248,-0.690123,0.000000
1.239614,-0.688924,-0.008633
1.239550,-0.688877,-0.017266
1.239443,-0.688798,-0.025898
1.230813,-0.685832,0.207330
1.229425,-0.684809,0.198328
1.227991,-0.683752,0.189355
1.231300,-0.686191,0.181182
1.232174,-0.686834,0.172599
1.230606,-0.685679,0.163660
1.231394,-0.686260,0.155083
1.232138,-0.686808,0.146499
1.230437,-0.685555,0.137616
1.227889,-0.683678,0.128673
1.228504,-0.684130,0.120116
1.229076,-0.684552,0.111555
1.230409,-0.685534,0.103064
1.230897,-0.685894,0.094489
1.231342,-0.686222,0.085910
1.230942,-0.685927,0.077273
1.231302,-0.686192,0.068695
1.231620,-0.686427,0.060114
1.231896,-0.686630,0.051530
1.232129,-0.686802,0.042945
1.232320,-0.686943,0.034358
1.238908,-0.691797,0.025917
1.237405,-0.690689,0.017254
1.232639,-0.687177,0.008590
1.233465,-0.687786,0.000000
1.233444,-0.687770,-0.008596
1.233380,-0.687723,-0.017192
1.233274,-0.687645,-0.025788
1.234460,-0.691906,0.199453
1.232237,-0.690261,0.190297
1.230762,-0.689170,0.181311
1.231636,-0.689816,0.172721
1.232466,-0.690431,0.164126
1.224466,-0.684511,0.154311
1.225206,-0.685059,0.145770
1.235504,-0.692678,0.138400
1.234565,-0.691983,0.129592
1.235183,-0.692440,0.120974
1.235758,-0.692866,0.112352
1.238696,-0.695040,0.103947
1.236781,-0.693623,0.095096
1.234822,-0.692173,0.086278
1.232818,-0.690691,0.077494
1.233179,-0.690958,0.068891
1.231892,-0.690005,0.060199
1.232167,-0.690209,0.051604
1.232401,-0.690382,0.043006
1.232592,-0.690523,0.034407
1.237563,-0.694201,0.025917
1.237669,-0.694280,0.017278
1.232910,-0.690759,0.008603
1.232931,-0.690774,0.000000
1.231302,-0.689569,-0.008590
1.231238,-0.689522,-0.017180
1.241581,-0.697174,-0.026009
1.234704,-0.695482,0.199735
1.230099,-0.692061,0.190163
1.229422,-0.691558,0.181311
1.231887,-0.693390,0.172966
1.232718,-0.694007,0.164358
1.231911,-0.693407,0.155524
1.232656,-0.693960,0.146916
1.234956,-0.695669,0.138498
1.234817,-0.695566,0.129775
1.235435,-0.696025,0.121146
1.236011,-0.696453,0.112512
1.237344,-0.697443,0.103947
1.237034,-0.697213,0.095231
1.238283,-0.698141,0.086646
1.234681,-0.695465,0.077715
1.231835,-0.693351,0.068891
1.232153,-0.693587,0.060285
1.232429,-0.693792,0.051677
1.229453,-0.691581,0.042945
1.229643,-0.691723,0.034358
1.233805,-0.694814,0.025861
1.233911,-0.694893,0.017242
1.233974,-0.694940,0.008621
1.234798,-0.695552,0.000000
1.234777,-0.695536,-0.008627
1.234713,-0.695489,-0.017254
1.241028,-0.700180,-0.026027
1.234313,-0.698595,0.191105
1.228077,-0.693944,0.181311
1.228948,-0.694594,0.172721
1.229776,-0.695211,0.164126
1.229765,-0.695204,0.155413
1.230509,-0.695758,0.146812
1.231210,-0.696281,0.138204
1.231868,-0.696772,0.129592
1.232484,-0.697232,0.120974
1.233857,-0.698256,0.112432
1.234389,-0.698652,0.103800
1.234078,-0.698421,0.095096
1.234525,-0.698754,0.086462
1.230927,-0.696070,0.077549
1.231287,-0.696339,0.068940
1.231605,-0.696576,0.060328
1.231881,-0.696781,0.051714
1.232114,-0.696955,0.043098
1.236311,-0.700086,0.034603
1.231652,-0.696611,0.025843
1.241376,-0.703864,0.017376
1.231842,-0.696753,0.000000
1.231821,-0.696737,-0.008615
1.225831,-0.695618,0.189893
1.225949,-0.695706,0.181182
1.226023,-0.695762,0.172477
1.226849,-0.696380,0.163893
1.227633,-0.696967,0.155303
1.227578,-0.696927,0.146603
1.228277,-0.697450,0.138008
1.234513,-0.702120,0.130051
1.227953,-0.697208,0.120631
1.228525,-0.697636,0.112034
1.229054,-0.698032,0.103432
1.229541,-0.698396,0.094826
1.229985,-0.698729,0.086217
1.230388,-0.699031,0.077605
1.230748,-0.699300,0.068989
1.230266,-0.698939,0.060328
1.230541,-0.699145,0.051714
1.230774,-0.699320,0.043098
1.230964,-0.699462,0.034480
1.228711,-0.697775,0.025806
1.240022,-0.706246,0.017376
1.232103,-0.700315,0.000000
1.232082,-0.700299,-0.008627
