   6.7847300e-01  -6.0285000e-01   5.4610000e-03
   6.7847500e-01  -6.1151600e-01  -1.0491900e-01
   6.7848100e-01  -6.2323700e-01  -1.2842100e-01
   6.7848600e-01  -6.2324400e-01   1.1093000e-02
   6.7848900e-01  -6.0863200e-01  -4.3916000e-02
   6.7850000e-01  -6.1155000e-01   4.4014000e-02
   6.7852600e-01  -6.2329900e-01   0.0000000e+00
   6.7852600e-01  -6.1743000e-01  -1.2785800e-01
   6.7858000e-01  -6.0299200e-01   7.1156000e-02
   6.7859100e-01  -6.0300600e-01  -3.8258000e-02
   6.7859200e-01  -6.2636200e-01  -3.8945000e-02
   6.7860600e-01  -6.0590100e-01  -7.1316000e-02
   6.7862000e-01  -6.0591900e-01   3.8344000e-02
   6.7865200e-01  -6.1175300e-01   3.8516000e-02
   6.7865500e-01  -6.1760300e-01  -1.1102600e-01
   6.7866900e-01  -6.1469100e-01  -1.1078200e-01
   6.7872300e-01  -6.2654100e-01  -3.3384000e-02
   6.7875500e-01  -6.2361100e-01   3.3311000e-02
   6.7877200e-01  -6.0901000e-01  -3.2942000e-02
   6.7884600e-01  -6.1493000e-01  -9.9641000e-02
   6.7885000e-01  -6.1201800e-01  -9.9420000e-02
   6.7886600e-01  -6.2376200e-01   2.7761000e-02
   6.7887700e-01  -6.0915100e-01  -6.5987000e-02
   6.7889400e-01  -6.1207700e-01   2.7515000e-02
   6.7891200e-01  -6.2382500e-01  -7.7904000e-02
   6.7894900e-01  -6.0924600e-01   7.7046000e-02
   6.7895300e-01  -6.0636200e-01  -2.1915000e-02
   6.7895700e-01  -6.2388600e-01   2.2210000e-02
   6.7897100e-01  -6.2094400e-01   1.2260300e-01
   6.7897400e-01  -6.0927900e-01  -2.1964000e-02
   6.7900700e-01  -6.1222900e-01   1.2179600e-01
   6.7904100e-01  -6.2103900e-01   1.0573400e-01
   6.7905000e-01  -6.1813700e-01  -1.0550100e-01
   6.7906400e-01  -6.1522300e-01  -1.0526800e-01
   6.7906600e-01  -6.0363500e-01  -6.0227000e-02
   6.7911000e-01  -6.0946100e-01  -6.0497000e-02
   6.7913300e-01  -6.1531600e-01   1.2771800e-01
   6.7917500e-01  -6.2418300e-01  -1.3425800e-01
   6.7923500e-01  -6.0385800e-01   1.0992500e-01
   6.7925400e-01  -6.0676200e-01  -1.1017000e-01
   6.7930500e-01  -6.0682900e-01   5.4882000e-02
   6.7932400e-01  -6.0397700e-01  -3.2832000e-02
   6.7941600e-01  -6.2154700e-01   1.0019200e-01
   6.7942500e-01  -6.1864400e-01  -9.9972000e-02
   6.7943400e-01  -6.0412300e-01  -6.5767000e-02
   6.7944400e-01  -6.1281400e-01   1.1629100e-01
   6.7948300e-01  -6.2163800e-01  -2.7730000e-02
   6.7950800e-01  -6.0422000e-01   7.6789000e-02
   6.7951500e-01  -6.1000100e-01  -4.9510000e-02
   6.7952700e-01  -6.0424500e-01  -2.1891000e-02
   6.7954600e-01  -6.1004300e-01  -7.7132000e-02
   6.7957400e-01  -6.2176100e-01  -2.2185000e-02
   6.7961600e-01  -5.9580500e-01   1.2588900e-01
   6.7963100e-01  -6.0438300e-01   1.0445400e-01
   6.7964400e-01  -6.2185700e-01  -1.6640000e-02
   6.7965000e-01  -6.0728900e-01  -1.0468700e-01
   6.7966900e-01  -6.0731400e-01   4.3916000e-02
   6.7969000e-01  -6.2191900e-01  -1.2842100e-01
   6.7971500e-01  -6.1317700e-01  -6.0700000e-02
   6.7974900e-01  -6.0167300e-01   7.1156000e-02
   6.7977000e-01  -6.2202800e-01   9.4647000e-02
   6.7980700e-01  -6.2504300e-01   3.8945000e-02
   6.7982000e-01  -6.1040900e-01  -7.1635000e-02
   6.7982400e-01  -6.2210000e-01   1.1151600e-01
   6.7983600e-01  -6.0753500e-01  -8.2534000e-02
   6.7986100e-01  -6.1337200e-01   1.1078200e-01
   6.7992600e-01  -6.1638400e-01  -1.3919800e-01
   6.7992800e-01  -6.2818800e-01  -1.5762700e-01
   6.7992800e-01  -6.1346200e-01  -5.5189000e-02
   6.7995300e-01  -6.0769100e-01  -3.2942000e-02
   6.7996900e-01  -6.1937900e-01   3.3237000e-02
   6.7997900e-01  -6.1353000e-01   3.3090000e-02
   6.7998000e-01  -6.2527800e-01  -1.5728500e-01
   6.8001400e-01  -6.2830600e-01  -2.7883000e-02
   6.8002700e-01  -6.0778900e-01  -9.9200000e-02
   6.8003700e-01  -6.1069900e-01  -9.9420000e-02
   6.8003800e-01  -6.0492200e-01  -2.7393000e-02
   6.8007800e-01  -6.0210600e-01   7.6703000e-02
   6.8008000e-01  -6.1952900e-01   2.7699000e-02
   6.8013000e-01  -6.0792700e-01  -7.7046000e-02
   6.8014700e-01  -6.2253900e-01  -1.2287200e-01
   6.8017100e-01  -6.1965200e-01   2.2161000e-02
   6.8018100e-01  -6.1380100e-01   2.2063000e-02
   6.8024300e-01  -6.1097400e-01  -1.6511000e-02
   6.8029400e-01  -6.1104200e-01  -1.1008000e-02
   6.8032400e-01  -6.3172800e-01  -1.4087900e-01
   6.8032700e-01  -6.1399700e-01   1.2771800e-01
   6.8039300e-01  -6.1117400e-01  -9.3918000e-02
   6.8042600e-01  -6.1705600e-01  -1.3367100e-01
   6.8048800e-01  -6.2895500e-01  -1.5205000e-01
   6.8051900e-01  -6.1134200e-01  -5.5127000e-02
   6.8054100e-01  -6.2604300e-01  -1.5172000e-01
   6.8058500e-01  -6.2313200e-01  -1.1731900e-01
   6.8060600e-01  -6.0280200e-01   6.5767000e-02
   6.8060800e-01  -6.2316400e-01  -1.5711400e-01
   6.8068100e-01  -6.1155800e-01   2.7546000e-02
   6.8069900e-01  -6.0292500e-01   2.1891000e-02
   6.8070900e-01  -6.0581000e-01  -7.6960000e-02
   6.8071900e-01  -6.3227000e-01  -1.2954600e-01
   6.8077000e-01  -6.0301800e-01   1.6419000e-02
   6.8080300e-01  -6.0593500e-01  -1.6456000e-02
   6.8082100e-01  -6.0308500e-01   1.0946000e-02
   6.8082300e-01  -6.3241300e-01  -1.3528500e-01
   6.8083800e-01  -6.2644700e-01   4.4603000e-02
   6.8084000e-01  -6.0311000e-01   6.0295000e-02
   6.8085400e-01  -6.0600200e-01  -1.0971000e-02
   6.8087500e-01  -6.2060200e-01   4.4406000e-02
   6.8090500e-01  -6.1770000e-01  -1.2814000e-01
   6.8096300e-01  -6.0614600e-01  -9.3605000e-02
   6.8096800e-01  -6.0327900e-01   3.8344000e-02
   6.8097300e-01  -6.2365900e-01  -1.3440500e-01
   6.8098300e-01  -6.0617300e-01  -7.1475000e-02
   6.8101700e-01  -6.2669200e-01  -1.4042100e-01
   6.8102700e-01  -6.2080700e-01   3.8859000e-02
   6.8102900e-01  -6.2969400e-01  -1.4646700e-01
   6.8103700e-01  -6.1203400e-01  -1.3323100e-01
   6.8105300e-01  -6.0339200e-01   5.4821000e-02
   6.8108000e-01  -6.2088000e-01  -1.3980900e-01
   6.8108200e-01  -6.2677900e-01  -1.4614900e-01
   6.8110000e-01  -6.0345300e-01   3.2869000e-02
   6.8117000e-01  -6.2392600e-01  -1.5155500e-01
   6.8121100e-01  -6.0360100e-01   2.7393000e-02
   6.8122300e-01  -6.0937900e-01  -1.1616200e-01
   6.8129900e-01  -6.0659100e-01  -8.8117000e-02
   6.8136400e-01  -6.1831800e-01  -1.2260300e-01
   6.8138000e-01  -6.0958700e-01  -1.2179600e-01
   6.8145200e-01  -6.2430900e-01   1.2884300e-01
   6.8146600e-01  -6.3029100e-01  -1.3513900e-01
   6.8147200e-01  -6.2140800e-01   1.2856200e-01
   6.8148700e-01  -6.0684000e-01  -5.4920000e-03
   6.8151500e-01  -6.0976800e-01  -1.2743600e-01
   6.8151800e-01  -6.1267400e-01  -1.2771800e-01
   6.8154900e-01  -6.3040600e-01  -1.4087900e-01
   6.8158800e-01  -6.0409700e-01   8.2442000e-02
   6.8161400e-01  -6.0700900e-01  -8.2626000e-02
   6.8176000e-01  -6.3369900e-01  -1.2408300e-01
   6.8180300e-01  -6.1890800e-01  -1.1706200e-01
   6.8181700e-01  -5.9868400e-01  -1.6001200e-01
   6.8183400e-01  -6.1895000e-01  -1.5677200e-01
   6.8184600e-01  -6.0157200e-01  -1.6036600e-01
   6.8193100e-01  -6.2202900e-01  -1.2300700e-01
   6.8200400e-01  -6.0464500e-01   1.0468700e-01
   6.8202600e-01  -6.0755300e-01  -1.0491900e-01
   6.8210100e-01  -6.0765300e-01   1.2729600e-01
   6.8219800e-01  -6.3430100e-01  -1.1847500e-01
   6.8221700e-01  -6.0780600e-01  -1.3293800e-01
   6.8223500e-01  -6.1655400e-01  -1.1127100e-01
   6.8229700e-01  -6.2545500e-01  -1.4614900e-01
   6.8237000e-01  -6.2262200e-01  -1.1744700e-01
   6.8238200e-01  -6.0514300e-01   9.9200000e-02
   6.8239700e-01  -6.1970800e-01  -1.5122500e-01
   6.8240400e-01  -6.0805300e-01  -9.9420000e-02
   6.8269800e-01  -6.0844300e-01  -1.2743600e-01
   6.8270600e-01  -6.1135000e-01   1.2771800e-01
   6.8273900e-01  -6.0561500e-01   9.3709000e-02
   6.8281900e-01  -6.2616400e-01  -1.4057300e-01
   6.8282400e-01  -6.0861000e-01  -1.1065900e-01
   6.8283600e-01  -6.1443400e-01  -1.1114900e-01
   6.8294100e-01  -6.2043900e-01  -1.4567300e-01
   6.8301300e-01  -6.3542000e-01  -1.0724600e-01
   6.8305500e-01  -6.3246500e-01  -2.2431000e-02
   6.8305600e-01  -6.0603300e-01   4.9510000e-02
   6.8305800e-01  -6.1181800e-01  -1.5608800e-01
   6.8307700e-01  -6.0606000e-01   8.8215000e-02
   6.8312700e-01  -6.3256200e-01  -1.6824000e-02
   6.8316200e-01  -6.3562500e-01  -9.5896000e-02
   6.8316600e-01  -6.1487400e-01  -1.2246800e-01
   6.8316700e-01  -6.1196300e-01   1.2219900e-01
   6.8317700e-01  -6.3263200e-01  -1.1216000e-02
   6.8318700e-01  -6.0620500e-01  -1.6492000e-02
   6.8320400e-01  -6.0622800e-01  -1.0491900e-01
   6.8323000e-01  -6.0626100e-01   4.4014000e-02
   6.8323500e-01  -6.1496600e-01  -1.0561700e-01
   6.8328700e-01  -6.1796400e-01  -1.2842100e-01
   6.8339100e-01  -6.3593800e-01  -1.0162500e-01
   6.8339800e-01  -6.1811100e-01  -1.3411200e-01
   6.8340800e-01  -6.0938300e-01   3.8601000e-02
   6.8349800e-01  -6.3608600e-01  -9.0274000e-02
   6.8350000e-01  -6.1532000e-01  -1.3950400e-01
   6.8354100e-01  -6.0955900e-01   3.3090000e-02
   6.8359600e-01  -6.1837800e-01  -1.1719000e-01
   6.8360600e-01  -6.1546200e-01  -1.1693300e-01
   6.8362400e-01  -6.1257000e-01  -1.5056600e-01
   6.8365300e-01  -6.0970700e-01   2.7577000e-02
   6.8365700e-01  -6.0971300e-01  -1.6160500e-01
   6.8366000e-01  -6.0682800e-01  -4.9565000e-02
   6.8374800e-01  -6.1858200e-01  -1.2287200e-01
   6.8379800e-01  -6.3348100e-01  -5.6140000e-03
   6.8381400e-01  -6.3652000e-01  -8.4648000e-02
   6.8389200e-01  -6.1584400e-01   1.2828000e-01
   6.8399300e-01  -6.0726800e-01  -1.3308500e-01
   6.8400400e-01  -6.0728300e-01  -1.1065900e-01
   6.8401800e-01  -6.3077800e-01   5.6108000e-02
   6.8407700e-01  -6.1902200e-01  -1.3996200e-01
   6.8408700e-01  -6.0739200e-01  -1.3874000e-01
   6.8416900e-01  -6.1329500e-01  -1.4503700e-01
   6.8418300e-01  -6.0751900e-01  -1.1629100e-01
   6.8420100e-01  -6.1043300e-01   9.9751000e-02
   6.8421100e-01  -6.3104100e-01   5.0504000e-02
   6.8436900e-01  -6.3728100e-01  -1.1323000e-01
   6.8439900e-01  -6.3430200e-01   0.0000000e+00
   6.8447600e-01  -6.0790500e-01  -1.2757700e-01
   6.8447600e-01  -6.0790500e-01   1.2757700e-01
   6.8456000e-01  -6.1090700e-01   9.4230000e-02
   6.8460300e-01  -6.1387200e-01  -1.3381800e-01
   6.8460400e-01  -6.0807400e-01   1.1078200e-01
   6.8461500e-01  -6.1098200e-01   8.3086000e-02
   6.8469400e-01  -6.1399200e-01  -1.3950400e-01
   6.8469600e-01  -6.3773100e-01  -7.9105000e-02
   6.8489800e-01  -6.1135500e-01   8.8706000e-02
   6.8493300e-01  -5.9709700e-01   1.2659200e-01
   6.8493900e-01  -6.0851600e-01  -1.2206500e-01
   6.8493900e-01  -6.0851600e-01   1.2206500e-01
   6.8495100e-01  -6.1142600e-01  -1.2233400e-01
   6.8497200e-01  -6.3811000e-01  -7.3467000e-02
   6.8538200e-01  -6.0909900e-01   1.1654800e-01
   6.8539300e-01  -6.1201100e-01  -1.1680500e-01
   6.8556900e-01  -6.4197200e-01  -1.5419400e-01
   6.8556900e-01  -6.3590200e-01   5.6330000e-03
   6.8567500e-01  -6.3303400e-01   7.3228000e-02
   6.8593100e-01  -6.3338300e-01   6.7606000e-02
   6.8598100e-01  -6.2157300e-01  -1.5762700e-01
   6.8598800e-01  -6.3346100e-01   7.8934000e-02
   6.8616600e-01  -6.3370300e-01   6.1981000e-02
   6.8648000e-01  -6.1345000e-01  -1.3965700e-01
   6.8654900e-01  -6.2233400e-01  -1.5205000e-01
   6.8671900e-01  -6.3747500e-01   1.1290000e-02
   6.8709700e-01  -6.2306800e-01  -1.4646700e-01
   6.8710800e-01  -5.8864100e-01   1.2603000e-01
   6.8730300e-01  -5.9733200e-01   1.2687400e-01
   6.8777700e-01  -6.2102800e-01  -1.5779800e-01
   6.8785400e-01  -6.4512100e-01  -1.4900900e-01
   6.8816300e-01  -6.4249100e-01  -6.8194000e-02
   6.8829100e-01  -5.9860900e-01  -1.6089700e-01
   6.8834700e-01  -6.2178900e-01  -1.5221500e-01
   6.8840100e-01  -6.1018000e-01  -1.5660100e-01
   6.8879500e-01  -5.9360300e-01  -1.6036600e-01
   6.8889700e-01  -6.2252300e-01  -1.4662600e-01
   6.8892300e-01  -6.0227300e-01  -1.5574600e-01
   6.8897300e-01  -6.1093100e-01  -1.5106000e-01
   6.8898600e-01  -6.0806000e-01  -1.5643000e-01
   6.8900100e-01  -6.1387100e-01  -1.5711400e-01
   6.8922800e-01  -6.3787300e-01   8.5108000e-02
   6.8939000e-01  -5.9436600e-01  -1.5489100e-01
   6.8949600e-01  -6.0301700e-01  -1.5023600e-01
   6.8955900e-01  -6.0880900e-01  -1.5089600e-01
   6.8957300e-01  -6.1462600e-01  -1.5155500e-01
   6.8981500e-01  -6.0626400e-01   1.2799900e-01
   6.9004900e-01  -6.0373400e-01  -1.4472000e-01
   6.9006900e-01  -5.9803300e-01  -1.6107400e-01
   6.9011100e-01  -6.0953100e-01  -1.4535500e-01
   6.9012200e-01  -6.1244100e-01  -1.4567300e-01
   6.9012500e-01  -6.1535300e-01  -1.4599100e-01
   6.9018300e-01  -6.1835200e-01  -1.5779800e-01
   6.9045400e-01  -6.1287700e-01   1.2870200e-01
   6.9066500e-01  -5.9880000e-01  -1.5557500e-01
   6.9075700e-01  -6.1911100e-01  -1.5221500e-01
   6.9083600e-01  -5.9622000e-01   1.2715500e-01
   6.9090500e-01  -5.9910800e-01   1.2743600e-01
   6.9116000e-01  -5.9381400e-01  -1.6072000e-01
   6.9117700e-01  -5.9665700e-01  -1.4974100e-01
   6.9118900e-01  -5.9947500e-01  -1.4440200e-01
   6.9124100e-01  -5.9954100e-01  -1.5007100e-01
   6.9126500e-01  -6.4064700e-01   9.1156000e-02
   6.9129700e-01  -6.0249300e-01  -1.5608800e-01
   6.9130900e-01  -6.1984300e-01  -1.4662600e-01
   6.9136500e-01  -6.0828400e-01  -1.5677200e-01
   6.9155500e-01  -5.8039600e-01   1.2574800e-01
   6.9187300e-01  -6.0323700e-01  -1.5056600e-01
   6.9194100e-01  -6.0903400e-01  -1.5122500e-01
   6.9236300e-01  -5.7594900e-01  -1.5877300e-01
   6.9242800e-01  -6.0395400e-01  -1.4503700e-01
   6.9249500e-01  -6.0975600e-01  -1.4567300e-01
   6.9268700e-01  -5.8457800e-01  -1.5983500e-01
   6.9285100e-01  -5.9035300e-01  -1.6054300e-01
   6.9314600e-01  -5.9353200e-01   1.2715500e-01
   6.9345100e-01  -5.9111300e-01  -1.5506200e-01
   6.9352800e-01  -5.9401900e-01  -1.6107400e-01
   6.9355400e-01  -5.9970400e-01  -1.4472000e-01
   6.9390700e-01  -5.8061200e-01   1.2603000e-01
   6.9403000e-01  -5.9184700e-01  -1.4957600e-01
   6.9412500e-01  -5.8638600e-01   1.2659200e-01
   6.9421500e-01  -5.8928400e-01   1.2687400e-01
   6.9443500e-01  -5.8400100e-01  -1.6001200e-01
   6.9445500e-01  -6.4499200e-01   9.7458000e-02
   6.9473800e-01  -5.9555700e-01  -1.5574600e-01
   6.9503700e-01  -5.8475500e-01  -1.5455000e-01
   6.9531800e-01  -5.9629500e-01  -1.5023600e-01
   6.9561900e-01  -5.8548200e-01  -1.4908100e-01
   6.9583500e-01  -5.7478400e-01  -1.5912700e-01
   6.9584500e-01  -5.7752800e-01  -1.4265500e-01
   6.9587700e-01  -5.9700600e-01  -1.4472000e-01
   6.9617000e-01  -5.8343400e-01  -1.6018900e-01
   6.9632800e-01  -5.7266900e-01  -1.5895000e-01
   6.9675100e-01  -5.9529400e-01   1.2771800e-01
   6.9677500e-01  -5.8418800e-01  -1.5472100e-01
   6.9696400e-01  -5.9275200e-01  -1.4440200e-01
   6.9758100e-01  -5.9072900e-01  -1.5557500e-01
   6.9764700e-01  -5.9642900e-01  -1.4487900e-01
   6.9766400e-01  -5.9363500e-01  -1.6160500e-01
   6.9811000e-01  -5.6942800e-01   1.2546700e-01
   6.9816500e-01  -5.9146200e-01  -1.5007100e-01
   6.9826900e-01  -5.9439900e-01  -1.5608800e-01
   6.9872800e-01  -5.9217000e-01  -1.4456100e-01
   6.9885400e-01  -5.9513600e-01  -1.5056600e-01
   6.9904800e-01  -6.0388600e-01  -1.5728500e-01
   6.9905000e-01  -5.8149200e-01  -1.6036600e-01
   6.9905300e-01  -5.6518800e-01   1.2518600e-01
   6.9906200e-01  -6.5435200e-01   1.7321000e-02
   6.9914900e-01  -5.7886600e-01   1.2645200e-01
   6.9942400e-01  -5.7646700e-01  -1.5420800e-01
   6.9963200e-01  -6.0463200e-01  -1.5172000e-01
   6.9965800e-01  -5.8224400e-01  -1.5489100e-01
   6.9982700e-01  -5.8799300e-01  -1.4990600e-01
   7.0000000e-01  -5.8543200e-01   1.2715500e-01
   7.0016600e-01  -5.8011900e-01  -1.5472100e-01
   7.0019600e-01  -6.0535200e-01  -1.4614900e-01
   7.0024500e-01  -5.8297000e-01  -1.4941100e-01
   7.0039200e-01  -5.8869700e-01  -1.4440200e-01
   7.0049300e-01  -5.9158300e-01  -1.4472000e-01
   7.0056200e-01  -6.5330800e-01   1.0438000e-01
   7.0063400e-01  -5.7795200e-01  -1.4891700e-01
   7.0075400e-01  -5.8084300e-01  -1.4924600e-01
   7.0079000e-01  -5.6998300e-01  -1.4249600e-01
   7.0104600e-01  -5.7300300e-01  -1.5965800e-01
   7.0104800e-01  -5.6226600e-01  -1.5841900e-01
   7.0122600e-01  -5.6512500e-01  -1.5877300e-01
   7.0132000e-01  -5.8154100e-01  -1.4376700e-01
   7.0165700e-01  -5.7374700e-01  -1.5420800e-01
   7.0193600e-01  -6.5517900e-01   1.1050300e-01
   7.0215700e-01  -5.7164000e-01  -1.5965800e-01
   7.0223400e-01  -5.8820500e-01  -1.5591700e-01
   7.0224700e-01  -5.7446500e-01  -1.4875200e-01
   7.0232300e-01  -5.7728500e-01  -1.4344900e-01
   7.0277000e-01  -5.7238300e-01  -1.5420800e-01
   7.0282300e-01  -5.8893700e-01  -1.5040100e-01
   7.0285200e-01  -6.5642700e-01   1.2245900e-01
   7.0300300e-01  -5.8638200e-01   1.2757700e-01
   7.0304800e-01  -5.7817100e-01  -1.6054300e-01
   7.0309800e-01  -5.6737700e-01  -1.5369500e-01
   7.0326600e-01  -5.7027600e-01  -1.5965800e-01
   7.0328600e-01  -6.5701800e-01   1.1665700e-01
   7.0336100e-01  -5.7310000e-01  -1.4875200e-01
   7.0339100e-01  -5.8964300e-01  -1.4487900e-01
   7.0344200e-01  -5.7592000e-01  -1.4344900e-01
   7.0344900e-01  -5.5188000e-01   1.2448300e-01
   7.0355400e-01  -5.6526900e-01  -1.5352400e-01
   7.0366100e-01  -5.7892100e-01  -1.5506200e-01
   7.0371000e-01  -6.6070800e-01   2.3290000e-02
   7.0376800e-01  -5.6552500e-01   1.2574800e-01
   7.0388000e-01  -5.7101800e-01  -1.5420800e-01
   7.0402400e-01  -5.8211200e-01   1.2729600e-01
   7.0414700e-01  -5.6598000e-01  -1.4809200e-01
   7.0425300e-01  -5.7964400e-01  -1.4957600e-01
   7.0425300e-01  -5.7418200e-01   1.2659200e-01
   7.0438200e-01  -5.7980200e-01   1.2152600e-01
   7.0450700e-01  -5.8270500e-01   1.2179600e-01
   7.0452600e-01  -5.7997800e-01   1.2715500e-01
   7.0471900e-01  -5.6666500e-01  -1.4265500e-01
   7.0510200e-01  -5.7249300e-01  -1.4891700e-01
   7.0567400e-01  -5.7318400e-01  -1.4344900e-01
   7.0575200e-01  -5.2626800e-01  -1.6052600e-01
   7.0577200e-01  -5.5990300e-01   1.2546700e-01
   7.0625800e-01  -5.6047800e-01   1.2004600e-01
   7.0668400e-01  -5.2984600e-01  -1.6107500e-01
   7.0673400e-01  -5.6104200e-01  -1.4233700e-01
   7.0681400e-01  -5.8553600e-01  -1.4487900e-01
   7.0685200e-01  -5.6118100e-01  -1.5912700e-01
   7.0708200e-01  -5.6412400e-01   1.2045000e-01
   7.0708600e-01  -5.6680900e-01  -1.4297200e-01
   7.0719500e-01  -5.6694000e-01  -1.5983500e-01
   7.0723300e-01  -5.6430300e-01   1.2603000e-01
   7.0734500e-01  -5.5910600e-01   1.2004600e-01
   7.0747100e-01  -5.6191400e-01  -1.5369500e-01
   7.0747300e-01  -5.7264000e-01  -1.4924600e-01
   7.0773600e-01  -5.5427700e-01   1.2518600e-01
   7.0781400e-01  -5.6767900e-01  -1.5437900e-01
   7.0798500e-01  -5.5193900e-01  -1.5824200e-01
   7.0806900e-01  -5.6262200e-01  -1.4825700e-01
   7.0822400e-01  -5.5484800e-01   1.1977700e-01
   7.0837700e-01  -5.7372700e-01   1.2701400e-01
   7.0841200e-01  -5.6839200e-01  -1.4891700e-01
   7.0859100e-01  -5.5002400e-01   1.2490500e-01
   7.0865500e-01  -5.5272000e-01   1.1964200e-01
   7.0867900e-01  -5.7409100e-01  -1.4392500e-01
   7.0908000e-01  -5.5059200e-01   1.1950800e-01
   7.0948700e-01  -5.4848000e-01   1.1937300e-01
   7.0955500e-01  -5.3564100e-01  -1.6217300e-01
   7.0956200e-01  -5.6707200e-01  -1.6018900e-01
   7.0964500e-01  -5.4866300e-01   1.2490500e-01
   7.0984900e-01  -5.6206000e-01  -1.5965800e-01
   7.0995100e-01  -5.7022900e-01   1.2687400e-01
   7.1002100e-01  -6.6619000e-01   1.3000500e-01
   7.1005900e-01  -5.6230800e-01   1.2617000e-01
   7.1009200e-01  -5.6770200e-01  -1.4344900e-01
   7.1018400e-01  -5.6781100e-01  -1.5472100e-01
   7.1018700e-01  -5.5979700e-01  -1.4265500e-01
   7.1037600e-01  -5.6268100e-01  -1.4297200e-01
   7.1046000e-01  -5.3923400e-01  -1.6272200e-01
   7.1047200e-01  -5.6279400e-01  -1.5420800e-01
   7.1071300e-01  -5.4210100e-01   1.1896900e-01
   7.1078400e-01  -5.6852500e-01  -1.4924600e-01
   7.1107300e-01  -5.6350300e-01  -1.4875200e-01
   7.1111000e-01  -5.3997500e-01   1.1883500e-01
   7.1226300e-01  -5.4646800e-01   1.1950800e-01
   7.1250000e-01  -5.4934700e-01   1.1977700e-01
   7.1281300e-01  -5.3933700e-01   1.1896900e-01
   7.1285300e-01  -5.6292900e-01  -1.6018900e-01
   7.1330500e-01  -5.6079600e-01  -1.6001200e-01
   7.1330500e-01  -5.5027400e-01   1.2546700e-01
   7.1332300e-01  -5.5816200e-01   1.2617000e-01
   7.1332900e-01  -5.5292400e-01  -1.5912700e-01
   7.1347900e-01  -5.6366500e-01  -1.5472100e-01
   7.1372200e-01  -5.4814200e-01   1.2532600e-01
   7.1373800e-01  -5.5864600e-01  -1.5420800e-01
   7.1393200e-01  -5.6152900e-01  -1.5455000e-01
   7.1395700e-01  -5.5365000e-01  -1.5369500e-01
   7.1402000e-01  -5.3813400e-01   1.2448300e-01
   7.1408400e-01  -5.6437500e-01  -1.4924600e-01
   7.1434300e-01  -5.5935200e-01  -1.4875200e-01
   7.1441800e-01  -5.2589500e-01  -1.6180700e-01
   7.1451600e-01  -5.3869400e-01   1.1910400e-01
   7.1453700e-01  -5.6223700e-01  -1.4908100e-01
   7.1456300e-01  -5.5435100e-01  -1.4825700e-01
   7.1493800e-01  -5.4174700e-01   1.2490500e-01
   7.1499400e-01  -5.3159500e-01  -1.6253900e-01
   7.1543700e-01  -5.4750000e-01   1.2546700e-01
   7.1612000e-01  -5.5876700e-01  -1.6018900e-01
   7.1669300e-01  -5.3092100e-01  -1.6272200e-01
   7.1675100e-01  -5.5949900e-01  -1.5472100e-01
   7.1735900e-01  -5.6020600e-01  -1.4924600e-01
   7.1753500e-01  -5.3952700e-01   1.1950800e-01
   7.1762700e-01  -5.5525400e-01  -1.6001200e-01
   7.1769400e-01  -5.3970700e-01   1.2504500e-01
   7.1776500e-01  -5.4236500e-01  -1.5859600e-01
   7.1789800e-01  -5.3736800e-01  -1.6363800e-01
   7.1826000e-01  -5.5598300e-01  -1.5455000e-01
   7.1839900e-01  -5.4308200e-01  -1.5318200e-01
   7.1843900e-01  -5.2529800e-01  -1.6235600e-01
   7.1879500e-01  -5.2317600e-01  -1.6217300e-01
   7.1882400e-01  -5.1821100e-01  -1.6162400e-01
   7.1887000e-01  -5.5668700e-01  -1.4908100e-01
   7.1901100e-01  -5.4377300e-01  -1.4776200e-01
   7.1911300e-01  -5.3619400e-01   1.2490500e-01
   7.1913000e-01  -5.5172300e-01  -1.5983500e-01
   7.1931500e-01  -5.4671100e-01  -1.5930400e-01
   7.1939800e-01  -5.2887800e-01  -1.6290500e-01
   7.1949400e-01  -5.1397400e-01  -1.6125800e-01
   7.1961300e-01  -5.3675300e-01   1.1950800e-01
   7.1976500e-01  -5.5244800e-01  -1.5437900e-01
   7.1976500e-01  -5.4983000e-01   1.2617000e-01
   7.1981000e-01  -5.2178000e-01  -1.6217300e-01
   7.1990000e-01  -5.3961200e-01   1.1977700e-01
   7.1995000e-01  -5.4743200e-01  -1.5386600e-01
   7.2016400e-01  -5.3478100e-01   1.2490500e-01
   7.2020000e-01  -5.5032500e-01  -1.5983500e-01
   7.2022900e-01  -5.2979500e-01   1.2448300e-01
   7.2037700e-01  -5.5314800e-01  -1.4891700e-01
   7.2042600e-01  -5.2748200e-01   1.1883500e-01
   7.2056300e-01  -5.4812700e-01  -1.4842200e-01
   7.2066500e-01  -5.3533900e-01   1.1950800e-01
   7.2071800e-01  -5.4052900e-01   1.2546700e-01
   7.2073100e-01  -5.3034900e-01   1.1910400e-01
   7.2083600e-01  -5.5105000e-01  -1.5437900e-01
   7.2113000e-01  -5.2322000e-01   1.1856600e-01
   7.2145000e-01  -5.5174900e-01  -1.4891700e-01
   7.2196500e-01  -5.2413100e-01   1.2420100e-01
   7.2249800e-01  -5.1970300e-01  -1.6235600e-01
   7.2258900e-01  -5.2986000e-01   1.2476400e-01
   7.2271400e-01  -5.0272100e-01  -1.6052600e-01
   7.2281500e-01  -5.2254800e-01   1.1870000e-01
   7.2317000e-01  -5.1545400e-01  -1.6199000e-01
   7.2323000e-01  -5.5905400e-01  -1.6125100e-01
   7.2345300e-01  -5.2827800e-01   1.1923900e-01
   7.2361700e-01  -5.2845600e-01   1.2476400e-01
   7.2384300e-01  -5.3633700e-01   1.2546700e-01
   7.2386900e-01  -5.5978700e-01  -1.5574600e-01
   7.2434700e-01  -5.3689600e-01   1.2004600e-01
   7.2448600e-01  -5.6049500e-01  -1.5023600e-01
   7.2510800e-01  -5.4544900e-01  -1.6001200e-01
   7.2533900e-01  -5.1778300e-01   1.2406100e-01
   7.2535500e-01  -5.4832800e-01  -1.6036600e-01
   7.2549700e-01  -5.4332300e-01  -1.5983500e-01
   7.2551300e-01  -5.1548500e-01  -1.6235600e-01
   7.2575000e-01  -5.4617000e-01  -1.5455000e-01
   7.2575400e-01  -5.0837200e-01   1.1789300e-01
   7.2582800e-01  -5.1337400e-01  -1.6217300e-01
   7.2584700e-01  -5.1832800e-01   1.1870000e-01
   7.2599700e-01  -5.4905100e-01  -1.5489100e-01
   7.2614000e-01  -5.4404100e-01  -1.5437900e-01
   7.2614900e-01  -5.1124900e-01  -1.6199000e-01
   7.2637000e-01  -5.4686500e-01  -1.4908100e-01
   7.2661700e-01  -5.4974900e-01  -1.4941100e-01
   7.2670000e-01  -5.0204200e-01  -1.6107500e-01
   7.2676100e-01  -5.4473500e-01  -1.4891700e-01
   7.2680400e-01  -5.1194400e-01   1.1829600e-01
   7.2697400e-01  -5.1212400e-01   1.2377900e-01
   7.2704600e-01  -5.3476000e-01  -1.5912700e-01
   7.2753500e-01  -5.2264300e-01   1.1923900e-01
   7.2767300e-01  -5.0063000e-01  -1.6107500e-01
   7.2769200e-01  -5.3547000e-01  -1.5369500e-01
   7.2784300e-01  -5.1552200e-01   1.1870000e-01
   7.2790400e-01  -4.9844900e-01   1.1735400e-01
   7.2831500e-01  -5.3615500e-01  -1.4825700e-01
   7.2845200e-01  -5.3120700e-01  -1.5895000e-01
   7.2853600e-01  -5.4409300e-01  -1.6036600e-01
   7.2853600e-01  -5.2623800e-01   1.1964200e-01
   7.2864800e-01  -5.1143100e-01   1.2392000e-01
   7.2892000e-01  -5.4196300e-01  -1.6018900e-01
   7.2910000e-01  -5.3191400e-01  -1.5352400e-01
   7.2916700e-01  -5.1198100e-01  -1.6253900e-01
   7.2918300e-01  -5.4481300e-01  -1.5489100e-01
   7.2931000e-01  -5.3981700e-01  -1.6001200e-01
   7.2937000e-01  -5.2714100e-01   1.2532600e-01
   7.2956700e-01  -5.4268000e-01  -1.5472100e-01
   7.2972400e-01  -5.1999000e-01   1.2476400e-01
   7.2972500e-01  -5.3259600e-01  -1.4809200e-01
   7.2980700e-01  -5.4550700e-01  -1.4941100e-01
   7.2984100e-01  -5.2765100e-01  -1.5877300e-01
   7.2995800e-01  -5.4053200e-01  -1.5455000e-01
   7.3019200e-01  -5.4337300e-01  -1.4924600e-01
   7.3023500e-01  -5.2053800e-01   1.1937300e-01
   7.3024500e-01  -5.0574700e-01   1.2363900e-01
   7.3039200e-01  -5.2572400e-01   1.2532600e-01
   7.3047200e-01  -5.0843300e-01  -1.6235600e-01
   7.3049100e-01  -5.2835500e-01  -1.5335300e-01
   7.3058400e-01  -5.4122300e-01  -1.4908100e-01
   7.3069100e-01  -5.0133900e-01  -1.6162400e-01
   7.3072100e-01  -5.1858900e-01   1.2476400e-01
   7.3073700e-01  -5.3625400e-01  -1.5983500e-01
   7.3075800e-01  -5.0628300e-01   1.1829600e-01
   7.3111800e-01  -5.2903300e-01  -1.4792700e-01
   7.3114100e-01  -5.0913600e-01   1.1856600e-01
   7.3138700e-01  -5.3696600e-01  -1.5437900e-01
   7.3153400e-01  -5.2695500e-01  -1.5895000e-01
   7.3168400e-01  -5.1216900e-01   1.2434200e-01
   7.3169700e-01  -5.3219900e-01   1.2603000e-01
   7.3189500e-01  -4.9776600e-01   1.1775800e-01
   7.3192000e-01  -4.9297800e-01   1.2279500e-01
   7.3201500e-01  -5.3765300e-01  -1.4891700e-01
   7.3218600e-01  -5.2765800e-01  -1.5352400e-01
   7.3219100e-01  -5.1270300e-01  -1.5753400e-01
   7.3219800e-01  -5.1271100e-01   1.1896900e-01
   7.3243600e-01  -4.9350400e-01   1.1748900e-01
   7.3281500e-01  -5.2833600e-01  -1.4809200e-01
   7.3284500e-01  -5.1339200e-01  -1.5215600e-01
   7.3290300e-01  -5.2339100e-01  -1.5877300e-01
   7.3300600e-01  -5.0130600e-01   1.1816200e-01
   7.3303100e-01  -5.0133200e-01  -1.6199000e-01
   7.3311300e-01  -5.0629300e-01   1.1856600e-01
   7.3311900e-01  -5.0629900e-01  -1.5700300e-01
   7.3317900e-01  -5.0148500e-01   1.2363900e-01
   7.3322600e-01  -5.2625400e-01  -1.5912700e-01
   7.3328400e-01  -5.0647000e-01   1.2406100e-01
   7.3347600e-01  -5.1405700e-01  -1.4677300e-01
   7.3355600e-01  -5.2409100e-01  -1.5335300e-01
   7.3363300e-01  -4.8517200e-01   1.2237300e-01
   7.3377500e-01  -5.0698200e-01  -1.5164300e-01
   7.3388000e-01  -5.2695600e-01  -1.5369500e-01
   7.3389900e-01  -5.1698400e-01  -1.5824200e-01
   7.3390600e-01  -5.2198300e-01  -1.5877300e-01
   7.3404300e-01  -5.1218100e-01   1.2462300e-01
   7.3414000e-01  -5.0007600e-01   1.2363900e-01
   7.3414700e-01  -5.3486100e-01  -1.6018900e-01
   7.3415100e-01  -4.8569300e-01   1.1708500e-01
   7.3418800e-01  -5.2476600e-01  -1.4792700e-01
   7.3451200e-01  -5.2763400e-01  -1.4825700e-01
   7.3455200e-01  -4.9566500e-01  -1.6162400e-01
   7.3455500e-01  -5.1767700e-01  -1.5284000e-01
   7.3456100e-01  -5.2268100e-01  -1.5335300e-01
   7.3480200e-01  -5.3557200e-01  -1.5472100e-01
   7.3509200e-01  -5.0835300e-01  -1.4644300e-01
   7.3518700e-01  -5.1834600e-01  -1.4743200e-01
   7.3519400e-01  -5.2335500e-01  -1.4792700e-01
   7.3540500e-01  -4.8221400e-01  -1.6034300e-01
   7.3543300e-01  -5.3625800e-01  -1.4924600e-01
   7.3551300e-01  -4.9423800e-01  -1.6162400e-01
   7.3556500e-01  -4.5691800e-01  -1.6316600e-01
   7.3559300e-01  -5.2127300e-01  -1.5895000e-01
   7.3599600e-01  -4.8993300e-01   1.1762400e-01
   7.3604700e-01  -5.0203900e-01  -1.6253900e-01
   7.3615100e-01  -5.0700100e-01  -1.5753400e-01
   7.3617200e-01  -4.9490800e-01   1.1802700e-01
   7.3625000e-01  -5.2197100e-01  -1.5352400e-01
   7.3632000e-01  -4.9989100e-01   1.1843100e-01
   7.3634700e-01  -4.9508600e-01   1.2349800e-01
   7.3643500e-01  -4.9277200e-01   1.1789300e-01
   7.3644900e-01  -5.0486300e-01  -1.5735700e-01
   7.3673100e-01  -5.0274200e-01  -1.5718000e-01
   7.3681000e-01  -5.0768400e-01  -1.5215600e-01
   7.3688500e-01  -5.2264500e-01  -1.4809200e-01
   7.3710900e-01  -5.0554500e-01  -1.5198500e-01
   7.3718400e-01  -5.0077600e-01   1.2406100e-01
   7.3719300e-01  -4.8637000e-01   1.1748900e-01
   7.3722100e-01  -4.7230800e-01  -1.6505700e-01
   7.3730100e-01  -4.9847100e-01  -1.5682600e-01
   7.3730700e-01  -4.9365500e-01   1.2349800e-01
   7.3739200e-01  -5.0342200e-01  -1.5181400e-01
   7.3744700e-01  -5.0834500e-01  -1.4677300e-01
   7.3761400e-01  -4.8441700e-01   1.2279500e-01
   7.3768600e-01  -4.8924800e-01  -1.6144100e-01
   7.3770200e-01  -5.0860900e-01   1.2476400e-01
   7.3774600e-01  -5.0620300e-01  -1.4660800e-01
   7.3792400e-01  -4.8710200e-01  -1.6675900e-01
   7.3793800e-01  -5.1626700e-01  -1.5877300e-01
   7.3796200e-01  -4.9914700e-01  -1.5147200e-01
   7.3813600e-01  -4.8493800e-01   1.1748900e-01
   7.3837300e-01  -4.8993900e-01  -1.5611800e-01
   7.3844600e-01  -4.6654200e-01   1.1614300e-01
   7.3855300e-01  -4.8298400e-01   1.2279500e-01
   7.3859900e-01  -5.1696000e-01  -1.5335300e-01
   7.3860100e-01  -4.9979900e-01  -1.4611300e-01
   7.3872300e-01  -4.9268600e-01  -1.4545300e-01
   7.3887700e-01  -4.8567700e-01  -1.5576400e-01
   7.3896100e-01  -4.9292600e-01   1.2363900e-01
   7.3898300e-01  -4.9055100e-01  -1.4528800e-01
   7.3903700e-01  -4.9060600e-01  -1.5078800e-01
   7.3907600e-01  -4.8350400e-01   1.1748900e-01
   7.3923600e-01  -5.1763000e-01  -1.4792700e-01
   7.3933000e-01  -4.8851000e-01  -1.6162400e-01
   7.3945200e-01  -4.6520500e-01  -1.6467900e-01
   7.3961900e-01  -5.1554500e-01  -1.5895000e-01
   7.3970200e-01  -4.6544600e-01   1.2692200e-01
   7.3976700e-01  -5.0342400e-01  -1.6327200e-01
   7.3982600e-01  -4.8425000e-01  -1.6125800e-01
   7.3992400e-01  -4.9630700e-01  -1.6253900e-01
   7.4009100e-01  -5.0620100e-01  -1.4693800e-01
   7.4017000e-01  -4.8935200e-01   1.2349800e-01
   7.4018300e-01  -4.8226200e-01   1.2293500e-01
   7.4025200e-01  -4.6597500e-01   1.2166900e-01
   7.4028200e-01  -5.1623700e-01  -1.5352400e-01
   7.4029100e-01  -4.8000900e-01  -1.6089200e-01
   7.4061300e-01  -4.9700500e-01  -1.5718000e-01
   7.4070700e-01  -4.8278100e-01   1.1762400e-01
   7.4074400e-01  -4.7575500e-01  -1.6052600e-01
   7.4076900e-01  -4.6878800e-01   1.2195100e-01
   7.4077800e-01  -4.6648200e-01   1.1641200e-01
   7.4092200e-01  -5.1690600e-01  -1.4809200e-01
   7.4116200e-01  -4.7851200e-01   1.1735400e-01
   7.4120600e-01  -4.7855500e-01  -1.6638000e-01
   7.4127900e-01  -4.9768000e-01  -1.5181400e-01
   7.4157900e-01  -4.9556800e-01  -1.6272200e-01
   7.4164300e-01  -4.8134200e-01   1.1762400e-01
   7.4227000e-01  -4.9626600e-01  -1.5735700e-01
   7.4235600e-01  -4.7498800e-01  -1.6619100e-01
   7.4257200e-01  -4.7286100e-01  -1.6600200e-01
   7.4261500e-01  -4.9903300e-01  -1.4660800e-01
   7.4278300e-01  -4.7073600e-01  -1.6581300e-01
   7.4293800e-01  -4.9694000e-01  -1.5198500e-01
   7.4309700e-01  -5.0195200e-01  -1.5806500e-01
   7.4318800e-01  -4.6648800e-01  -1.6543500e-01
   7.4320400e-01  -5.0694700e-01  -1.5859600e-01
   7.4350700e-01  -4.7845800e-01   1.1762400e-01
   7.4376500e-01  -5.0263100e-01  -1.5266900e-01
   7.4378500e-01  -4.8345500e-01  -1.5629500e-01
   7.4387200e-01  -5.0763200e-01  -1.5318200e-01
   7.4393700e-01  -4.7418700e-01   1.1735400e-01
   7.4416900e-01  -4.8146500e-01   1.2335700e-01
   7.4419100e-01  -4.9337900e-01  -1.5735700e-01
   7.4441000e-01  -5.0328800e-01  -1.4726700e-01
   7.4443400e-01  -4.7701400e-01   1.1762400e-01
   7.4445700e-01  -4.8411600e-01  -1.5095900e-01
   7.4448600e-01  -4.7238300e-01   1.2809600e-01
   7.4451700e-01  -5.0829300e-01  -1.4776200e-01
   7.4464200e-01  -4.8430000e-01   1.2363900e-01
   7.4470500e-01  -4.8909800e-01  -1.5700300e-01
   7.4472800e-01  -4.8201500e-01  -1.6180700e-01
   7.4486200e-01  -4.9405100e-01  -1.5198500e-01
   7.4537700e-01  -4.8976600e-01  -1.5164300e-01
   7.4540700e-01  -4.7561400e-01  -1.6125800e-01
   7.4542500e-01  -4.8269900e-01  -1.5647200e-01
   7.4562300e-01  -4.7348200e-01  -1.6107500e-01
   7.4564500e-01  -4.8767000e-01  -1.6253900e-01
   7.4588300e-01  -4.6216800e-01  -1.6543500e-01
   7.4603300e-01  -4.7857200e-01   1.2335700e-01
   7.4606500e-01  -4.6004400e-01  -1.6524600e-01
   7.4609800e-01  -4.8336000e-01  -1.5113000e-01
   7.4610500e-01  -4.7629200e-01  -1.5594100e-01
   7.4634300e-01  -4.8836000e-01  -1.5718000e-01
   7.4640600e-01  -4.6496900e-01  -1.6581300e-01
   7.4654100e-01  -4.7203400e-01  -1.6107500e-01
   7.4695700e-01  -4.5859500e-01  -1.6524600e-01
   7.4701600e-01  -4.8902700e-01  -1.5181400e-01
   7.4745600e-01  -4.7058300e-01  -1.6107500e-01
   7.4745900e-01  -4.5222900e-01  -1.6467900e-01
   7.4758700e-01  -4.6841100e-01   1.1735400e-01
   7.4782000e-01  -4.3466300e-01  -1.6297700e-01
   7.4801500e-01  -4.5502000e-01  -1.6505700e-01
   7.4815700e-01  -4.7125600e-01  -1.5576400e-01
   7.4819400e-01  -4.7832000e-01  -1.5095900e-01
   7.4822000e-01  -4.6208000e-01  -1.6034300e-01
   7.4847100e-01  -4.8331600e-01  -1.5700300e-01
   7.4856200e-01  -4.5781500e-01  -1.6543500e-01
   7.4864800e-01  -4.5561200e-01   1.1654700e-01
   7.4868200e-01  -4.6482200e-01   1.1722000e-01
   7.4883500e-01  -4.7190700e-01  -1.5044600e-01
   7.4914800e-01  -4.8397800e-01  -1.5164300e-01
   7.4915100e-01  -4.7689500e-01  -1.5647200e-01
   7.4920900e-01  -4.4932300e-01  -1.6467900e-01
   7.4934800e-01  -4.8417400e-01   1.2420100e-01
   7.4954700e-01  -4.7259000e-01   1.1789300e-01
   7.4977900e-01  -4.7050600e-01  -1.6144100e-01
   7.4983000e-01  -4.7755100e-01  -1.5113000e-01
   7.5000500e-01  -4.9677900e-01  -1.5301100e-01
   7.5007600e-01  -4.7544000e-01  -1.5647200e-01
   7.5017400e-01  -4.6623800e-01  -1.6107500e-01
   7.5043000e-01  -4.2820600e-01  -1.6278800e-01
   7.5048300e-01  -4.7117900e-01  -1.5611800e-01
   7.5064800e-01  -4.6900900e-01   1.1775800e-01
   7.5075500e-01  -4.7609400e-01  -1.5113000e-01
   7.5087900e-01  -4.6690700e-01  -1.5576400e-01
   7.5098300e-01  -4.5550700e-01   1.1681600e-01
   7.5140300e-01  -4.6972700e-01  -1.6162400e-01
   7.5142500e-01  -4.4913000e-01   1.1641200e-01
   7.5152300e-01  -4.8392200e-01  -1.6308900e-01
   7.5211000e-01  -4.7040000e-01  -1.5629500e-01
   7.5222700e-01  -4.8460900e-01  -1.5771100e-01
   7.5264300e-01  -4.8264000e-01   1.2448300e-01
   7.5279200e-01  -4.7105000e-01  -1.5095900e-01
   7.5287700e-01  -4.6186000e-01  -1.6107500e-01
   7.5290900e-01  -4.8527300e-01  -1.5232700e-01
   7.5299100e-01  -4.6890900e-01  -1.5078800e-01
   7.5311100e-01  -4.4841600e-01  -1.6524600e-01
   7.5373300e-01  -4.2236500e-01  -1.6278800e-01
   7.5393100e-01  -4.6747600e-01  -1.5629500e-01
   7.5394500e-01  -4.5826300e-01  -1.6089200e-01
   7.5409800e-01  -4.5611700e-01  -1.6619100e-01
   7.5440800e-01  -4.5187200e-01  -1.6581300e-01
   7.5450700e-01  -4.3845900e-01  -1.6449000e-01
   7.5470600e-01  -4.4761500e-01  -1.6543500e-01
   7.5499100e-01  -4.6384200e-01   1.1789300e-01
   7.5502200e-01  -4.6387100e-01  -1.5611800e-01
   7.5543700e-01  -4.7591500e-01  -1.5181400e-01
   7.5555500e-01  -4.5746700e-01  -1.6107500e-01
   7.5570900e-01  -4.6451500e-01  -1.5078800e-01
   7.5571000e-01  -4.4402200e-01  -1.6524600e-01
   7.5571900e-01  -4.5533200e-01  -1.6089200e-01
   7.5586800e-01  -4.5321500e-01  -1.6070900e-01
   7.5604800e-01  -4.6947700e-01  -1.5130100e-01
   7.5606500e-01  -4.6949300e-01   1.1843100e-01
   7.5626800e-01  -4.5812800e-01  -1.5576400e-01
   7.5627400e-01  -4.6736400e-01  -1.6217300e-01
   7.5636000e-01  -4.4461000e-01   1.1668100e-01
   7.5682400e-01  -4.4954700e-01   1.1708500e-01
   7.5692700e-01  -4.3619600e-01  -1.6467900e-01
   7.5730700e-01  -4.5453800e-01  -1.5558700e-01
   7.5741100e-01  -4.5235500e-01   1.1735400e-01
   7.5767900e-01  -4.5943600e-01  -1.5061700e-01
   7.5768000e-01  -4.5943700e-01   1.1789300e-01
   7.5769500e-01  -4.4807700e-01   1.1708500e-01
   7.5769700e-01  -4.6870300e-01   1.1856600e-01
   7.5770400e-01  -4.6870900e-01  -1.5700300e-01
   7.5787900e-01  -4.5732600e-01  -1.5594100e-01
   7.5808100e-01  -4.4166900e-01   1.1668100e-01
   7.5819700e-01  -4.5307400e-01  -1.6107500e-01
   7.5825500e-01  -4.2412400e-01  -1.6373300e-01
   7.5828400e-01  -4.3961200e-01  -1.6524600e-01
   7.5839300e-01  -4.6935800e-01  -1.5164300e-01
   7.5857100e-01  -4.5796400e-01   1.1789300e-01
   7.5871900e-01  -4.3113000e-01  -1.6449000e-01
   7.5872300e-01  -4.5584000e-01  -1.5044600e-01
   7.5880200e-01  -4.6509500e-01  -1.6235600e-01
   7.5893700e-01  -4.4019700e-01   1.1668100e-01
   7.5920700e-01  -4.4945100e-01  -1.6638000e-01
   7.5929400e-01  -4.5863200e-01  -1.5078800e-01
   7.5949000e-01  -4.6573700e-01  -1.5147200e-01
   7.5950200e-01  -4.4519700e-01  -1.6052600e-01
   7.5951800e-01  -4.6576300e-01  -1.5700300e-01
   7.5963400e-01  -4.4306500e-01  -1.6034300e-01
   7.6042100e-01  -4.6428800e-01  -1.5700300e-01
   7.6082200e-01  -4.3520500e-01  -1.6524600e-01
   7.6109100e-01  -4.5572500e-01  -1.5629500e-01
   7.6111400e-01  -4.6493300e-01  -1.5164300e-01
   7.6130200e-01  -4.2458100e-01  -1.6430100e-01
   7.6136500e-01  -4.5141200e-01  -1.5044600e-01
   7.6137200e-01  -4.3792100e-01   1.1681600e-01
   7.6140600e-01  -4.5144900e-01  -1.6144100e-01
   7.6158000e-01  -4.1612200e-01  -1.6354400e-01
   7.6176900e-01  -4.3159900e-01  -1.6505700e-01
   7.6178600e-01  -4.5636200e-01  -1.5095900e-01
   7.6212500e-01  -4.2310200e-01  -1.6430100e-01
   7.6212700e-01  -4.5210400e-01  -1.5611800e-01
   7.6220100e-01  -4.2098100e-01  -1.6411200e-01
   7.6280700e-01  -4.4143600e-01  -1.6070900e-01
   7.6292800e-01  -4.3930200e-01  -1.6052600e-01
   7.6332500e-01  -4.0681800e-01  -1.6297700e-01
   7.6388300e-01  -4.1591500e-01  -1.6392300e-01
   7.6411400e-01  -4.0533500e-01  -1.6297700e-01
   7.6444800e-01  -4.3841100e-01   1.1722000e-01
   7.6458100e-01  -4.4977600e-01   1.1802700e-01
   7.6462800e-01  -4.3633600e-01  -1.6052600e-01
   7.6475000e-01  -4.3199400e-01   1.1681600e-01
   7.6519600e-01  -4.5260900e-01  -1.6217300e-01
   7.6525400e-01  -4.2141700e-01  -1.6467900e-01
   7.6562100e-01  -4.4617700e-01  -1.6162400e-01
   7.6567400e-01  -4.2837200e-01   1.1668100e-01
   7.6592200e-01  -4.5326600e-01  -1.5682600e-01
   7.6598900e-01  -4.3977300e-01  -1.6107500e-01
   7.6604100e-01  -4.3758100e-01   1.1735400e-01
   7.6614500e-01  -4.3543900e-01   1.1722000e-01
   7.6624300e-01  -4.1357800e-01  -1.6411200e-01
   7.6662300e-01  -4.5390100e-01  -1.5147200e-01
   7.6704500e-01  -4.1209000e-01  -1.6411200e-01
   7.6716600e-01  -4.0573300e-01  -1.6354400e-01
   7.6717800e-01  -4.4533200e-01   1.1802700e-01
   7.6720500e-01  -4.4535600e-01  -1.5629500e-01
   7.6742400e-01  -4.2547500e-01  -1.5997700e-01
   7.6750200e-01  -4.2334400e-01  -1.5979400e-01
   7.6769100e-01  -4.3679500e-01  -1.6107500e-01
   7.6779000e-01  -4.5955300e-01  -1.6327200e-01
   7.6790900e-01  -4.4598300e-01  -1.5095900e-01
   7.6801800e-01  -3.9369200e-01  -1.6259900e-01
   7.6830900e-01  -4.3957800e-01  -1.5594100e-01
   7.6842100e-01  -4.3743600e-01  -1.5576400e-01
   7.6851800e-01  -4.6021700e-01  -1.5788800e-01
   7.6857700e-01  -4.3311100e-01   1.1735400e-01
   7.6864000e-01  -4.3316500e-01  -1.6089200e-01
   7.6899300e-01  -4.5375500e-01  -1.5735700e-01
   7.6922100e-01  -4.6085900e-01  -1.5249800e-01
   7.6969800e-01  -4.5439100e-01  -1.5198500e-01
   7.6972200e-01  -4.2307200e-01   1.1681600e-01
   7.6986800e-01  -4.3870600e-01  -1.5061700e-01
   7.7001600e-01  -4.5010900e-01  -1.5718000e-01
   7.7001800e-01  -4.3659800e-01  -1.6144100e-01
   7.7011400e-01  -4.3444900e-01  -1.5576400e-01
   7.7022200e-01  -4.3231600e-01  -1.6107500e-01
   7.7049300e-01  -4.4150200e-01  -1.5095900e-01
   7.7060500e-01  -4.5291900e-01  -1.5753400e-01
   7.7072200e-01  -4.5074100e-01  -1.5181400e-01
   7.7108700e-01  -4.2862700e-01   1.1735400e-01
   7.7131200e-01  -4.5355400e-01  -1.5215600e-01
   7.7175300e-01  -4.3141900e-01   1.1762400e-01
   7.7176700e-01  -4.0524800e-01  -1.6430100e-01
   7.7180400e-01  -4.3146200e-01  -1.6125800e-01
   7.7187800e-01  -4.4498100e-01  -1.5700300e-01
   7.7205200e-01  -4.2506100e-01  -1.6070900e-01
   7.7205200e-01  -4.2286100e-01   1.1708500e-01
   7.7218200e-01  -4.2077700e-01  -1.6581300e-01
   7.7222600e-01  -4.1644400e-01   1.1668100e-01
   7.7244300e-01  -4.3424200e-01  -1.5611800e-01
   7.7248400e-01  -4.4778600e-01  -1.5735700e-01
   7.7249200e-01  -4.0799800e-01  -1.6467900e-01
   7.7258700e-01  -4.4560800e-01  -1.5164300e-01
   7.7260100e-01  -3.9528500e-01  -1.6354400e-01
   7.7287100e-01  -4.2136100e-01   1.1708500e-01
   7.7301200e-01  -4.1928900e-01  -1.6034300e-01
   7.7319400e-01  -4.4841600e-01  -1.5198500e-01
   7.7368800e-01  -4.1985900e-01   1.1708500e-01
   7.7379300e-01  -4.1558000e-01   1.1681600e-01
   7.7412400e-01  -4.3124000e-01  -1.5611800e-01
   7.7445700e-01  -4.4047700e-01  -1.5700300e-01
   7.7477500e-01  -4.3402900e-01  -1.5647200e-01
   7.7480500e-01  -3.8233800e-01  -1.6278800e-01
   7.7483800e-01  -4.3185400e-01  -1.5078800e-01
   7.7486700e-01  -4.0138300e-01  -1.6449000e-01
   7.7516900e-01  -4.4110000e-01  -1.5164300e-01
   7.7528100e-01  -4.3894800e-01  -1.5147200e-01
   7.7570700e-01  -4.3037600e-01  -1.5629500e-01
   7.7600800e-01  -4.2181700e-01  -1.5558700e-01
   7.7616300e-01  -4.1320500e-01   1.1695100e-01
   7.7623200e-01  -4.0892700e-01   1.1668100e-01
   7.7623500e-01  -4.3529000e-01  -1.5130100e-01
   7.7653200e-01  -4.2888600e-01  -1.5629500e-01
   7.7672500e-01  -4.2242200e-01  -1.5027500e-01
   7.7708500e-01  -4.0963000e-01  -1.6016000e-01
   7.7718500e-01  -4.3164200e-01   1.1829600e-01
   7.7736900e-01  -4.2738200e-01  -1.6180700e-01
   7.7744700e-01  -4.2523700e-01  -1.6162400e-01
   7.7775700e-01  -4.1452900e-01  -1.6070900e-01
   7.7780600e-01  -4.0592700e-01   1.1668100e-01
   7.7849100e-01  -4.1296000e-01   1.1722000e-01
   7.7872200e-01  -3.9809300e-01  -1.6486800e-01
   7.7886300e-01  -4.2865300e-01  -1.5664900e-01
   7.7894300e-01  -4.2650300e-01  -1.5647200e-01
   7.7931800e-01  -4.1364400e-01  -1.6089200e-01
   7.7936100e-01  -4.0504200e-01   1.1681600e-01
   7.7937600e-01  -4.0290300e-01   1.1668100e-01
   7.7940800e-01  -4.0723700e-01  -1.6581300e-01
   7.7941500e-01  -4.3355400e-01  -1.5164300e-01
   7.7949500e-01  -3.9445400e-01  -1.6467900e-01
   7.7958200e-01  -4.2926500e-01  -1.5130100e-01
   7.7966300e-01  -4.2711300e-01  -1.5113000e-01
   7.7991100e-01  -4.2070100e-01  -1.6162400e-01
   7.7996700e-01  -3.8010800e-01   1.1533600e-01
   7.8006600e-01  -4.1426300e-01  -1.5558700e-01
   7.8010400e-01  -3.8860800e-01   1.1587400e-01
   7.8018600e-01  -3.8446400e-01  -1.6392300e-01
   7.8021200e-01  -4.0573400e-01  -1.6034300e-01
   7.8024600e-01  -4.3205700e-01  -1.5164300e-01
   7.8026000e-01  -3.9719500e-01  -1.6505700e-01
   7.8059800e-01  -4.4131400e-01  -1.5249800e-01
   7.8065900e-01  -4.2132700e-01  -1.5629500e-01
   7.8072600e-01  -4.1918600e-01  -1.6162400e-01
   7.8079000e-01  -4.1486100e-01  -1.5027500e-01
   7.8092800e-01  -4.0201200e-01   1.1681600e-01
   7.8144800e-01  -4.1978700e-01   1.1802700e-01
   7.8147600e-01  -4.1981000e-01  -1.5629500e-01
   7.8153200e-01  -4.1766400e-01  -1.5611800e-01
   7.8162900e-01  -4.1337400e-01  -1.5576400e-01
   7.8166100e-01  -4.1122400e-01  -1.6656900e-01
   7.8167300e-01  -3.8143100e-01  -1.6392300e-01
   7.8167800e-01  -3.9196800e-01   1.1627800e-01
   7.8170700e-01  -4.0049500e-01   1.1681600e-01
   7.8178100e-01  -4.0270100e-01  -1.6034300e-01
   7.8210300e-01  -4.2474500e-01  -1.6235600e-01
   7.8213700e-01  -4.2256500e-01  -1.5113000e-01
   7.8220000e-01  -4.2041400e-01  -1.5095900e-01
   7.8225600e-01  -4.1826500e-01  -1.5078800e-01
   7.8235400e-01  -4.1397100e-01  -1.5044600e-01
   7.8239500e-01  -4.1182600e-01  -1.5027500e-01
   7.8243900e-01  -4.1186200e-01  -1.6125800e-01
   7.8248200e-01  -3.9683800e-01   1.1668100e-01
   7.8268400e-01  -3.9913700e-01   1.2223200e-01
   7.8285300e-01  -4.2537500e-01  -1.5700300e-01
   7.8302400e-01  -3.7825100e-01   1.1560500e-01
   7.8315300e-01  -4.1244800e-01   1.1775800e-01
   7.8319100e-01  -4.1248000e-01  -1.5594100e-01
   7.8320500e-01  -3.8047900e-01  -1.6411200e-01
   7.8325600e-01  -3.9959600e-01   1.1695100e-01
   7.8328800e-01  -4.0607600e-01  -1.6089200e-01
   7.8409100e-01  -3.9387900e-01  -1.6543500e-01
   7.8467700e-01  -3.7743500e-01  -1.6411200e-01
   7.8477800e-01  -4.0945200e-01  -1.5594100e-01
   7.8487100e-01  -3.9660600e-01  -1.6581300e-01
   7.8508700e-01  -4.2725200e-01  -1.5198500e-01
   7.8542400e-01  -3.8219500e-01   1.1614300e-01
   7.8553200e-01  -3.9076600e-01   1.1668100e-01
   7.8557100e-01  -4.0792800e-01  -1.5594100e-01
   7.8558700e-01  -3.8022400e-01   1.2138800e-01
   7.8562500e-01  -4.0364800e-01  -1.6107500e-01
   7.8562600e-01  -3.9296400e-01  -1.6562400e-01
   7.8612900e-01  -3.7440200e-01  -1.6411200e-01
   7.8627300e-01  -4.1284800e-01  -1.6199000e-01
   7.8628900e-01  -3.8924000e-01   1.1668100e-01
   7.8630200e-01  -4.0852000e-01  -1.5061700e-01
   7.8702900e-01  -4.1346700e-01  -1.5664900e-01
   7.8703500e-01  -4.1129000e-01  -1.5095900e-01
   7.8712700e-01  -3.8777800e-01  -1.6543500e-01
   7.8717500e-01  -4.0273600e-01  -1.6125800e-01
   7.8776100e-01  -4.1406500e-01  -1.5130100e-01
   7.8782500e-01  -3.8832200e-01   1.1681600e-01
   7.8790500e-01  -3.9901800e-01   1.1748900e-01
   7.8793400e-01  -4.0334500e-01  -1.5594100e-01
   7.8795500e-01  -3.9480100e-01  -1.6070900e-01
   7.8822700e-01  -3.6769700e-01  -1.6392300e-01
   7.8861100e-01  -3.8255200e-01  -1.6524600e-01
   7.8865900e-01  -4.0825700e-01  -1.5647200e-01
   7.8866800e-01  -4.0393300e-01  -1.5061700e-01
   7.8872400e-01  -4.0182000e-01  -1.6144100e-01
   7.8872800e-01  -3.9755100e-01  -1.6107500e-01
   7.8873300e-01  -3.9967600e-01  -1.6125800e-01
   7.8886800e-01  -3.9766200e-01   1.2293500e-01
   7.8908100e-01  -3.7040700e-01  -1.6430100e-01
   7.8939300e-01  -4.0885000e-01  -1.5113000e-01
   7.8948500e-01  -4.0242800e-01  -1.5611800e-01
   7.8949000e-01  -3.9815400e-01  -1.5576400e-01
   7.8949500e-01  -4.0028200e-01  -1.5594100e-01
   7.9021700e-01  -4.0734200e-01  -1.5664900e-01
   7.9022100e-01  -4.0301600e-01  -1.5078800e-01
   7.9022100e-01  -3.8806700e-01  -1.6052600e-01
